ncols 457
nrows 30
xllcorner 168450
yllcorner 5630650
cellsize 50.000000000000
NODATA_value -9999
-9.68 -9.7 -9.72 -9.73 -9.73 -9.73 -9.7 -9.68 -9.66 -9.65 -9.65 -9.66 -9.66 -9.66 -9.66 -9.66 -9.64 -9.61 -9.58 -9.57 -9.6 -9.65 -9.68 -9.71 -9.74 -9.81 -9.93 -10.01 -9.99 -9.92 -9.82 -9.7 -9.57 -9.42 -9.26 -9.11 -8.99 -8.91 -8.89 -8.91 -8.97 -9.07 -9.18 -9.31 -9.43 -9.54 -9.62 -9.69 -9.74 -9.78 -9.82 -9.85 -9.89 -9.93 -9.96 -9.96 -9.95 -9.93 -9.93 -9.93 -9.93 -9.93 -9.94 -9.94 -9.94 -9.94 -9.94 -9.92 -9.9 -9.86 -9.83 -9.79 -9.77 -9.75 -9.73 -9.72 -9.73 -9.73 -9.72 -9.7 -9.67 -9.66 -9.65 -9.65 -9.66 -9.66 -9.65 -9.64 -9.63 -9.64 -9.67 -9.72 -9.78 -9.82 -9.84 -9.83 -9.8 -9.77 -9.77 -9.79 -9.85 -9.9 -9.95 -9.99 -10.03 -10.08 -10.13 -10.18 -10.2 -10.2 -10.2 -10.19 -10.19 -10.19 -10.2 -10.21 -10.23 -10.24 -10.24 -10.23 -10.22 -10.19 -10.12 -10.04 -9.93 -9.81 -9.69 -9.64 -9.69 -9.74 -9.74 -9.7 -9.65 -9.6 -9.54 -9.48 -9.42 -9.37 -9.34 -9.3 -9.23 -9.18 -9.15 -9.14 -9.14 -9.15 -9.15 -9.19 -9.29 -9.41 -9.52 -9.6 -9.67 -9.73 -9.78 -9.81 -9.83 -9.86 -9.9 -9.95 -10 -10.06 -10.12 -10.18 -10.24 -10.31 -10.37 -10.43 -10.47 -10.49 -10.52 -10.54 -10.56 -10.58 -10.6 -10.6 -10.6 -10.58 -11.98 -16.78 -22.64 -25.25 -25.45 -25.26 -24.68 -21.85 -15.99 -11.27 -9.9 -9.92 -9.95 -9.99 -10.04 -10.09 -10.15 -10.21 -10.25 -10.29 -10.33 -10.36 -10.4 -10.42 -10.44 -10.45 -10.46 -10.47 -10.46 -10.45 -10.43 -10.4 -10.38 -10.36 -10.36 -10.36 -10.36 -10.35 -10.33 -10.3 -10.28 -10.26 -10.27 -10.29 -10.3 -10.3 -10.29 -10.28 -10.27 -10.26 -10.26 -10.26 -10.27 -10.27 -10.27 -10.26 -10.27 -10.29 -10.32 -10.36 -10.42 -10.47 -10.51 -10.53 -10.53 -10.52 -10.51 -10.52 -10.54 -10.57 -10.61 -10.65 -10.68 -10.69 -10.69 -10.67 -10.65 -10.61 -10.56 -10.49 -10.4 -10.31 -10.24 -10.19 -10.18 -10.18 -10.2 -10.24 -10.3 -10.38 -10.48 -10.58 -10.68 -10.76 -10.82 -10.85 -10.87 -10.89 -10.91 -10.93 -10.95 -10.96 -10.97 -10.96 -10.93 -10.89 -10.86 -10.82 -10.8 -10.78 -10.76 -10.74 -10.75 -10.76 -10.78 -10.8 -10.8 -10.81 -10.81 -10.8 -10.79 -10.78 -10.75 -10.73 -10.71 -10.7 -10.68 -10.67 -10.66 -10.65 -10.66 -10.67 -10.69 -10.71 -10.74 -10.76 -10.78 -10.79 -10.79 -10.79 -10.78 -10.77 -10.75 -10.72 -10.7 -10.68 -10.65 -10.62 -10.58 -10.54 -10.51 -10.52 -10.58 -10.68 -10.81 -10.96 -11.13 -11.29 -11.42 -11.52 -11.55 -11.54 -11.5 -11.46 -11.41 -11.38 -11.35 -11.33 -11.3 -11.26 -11.24 -11.23 -11.23 -11.21 -11.17 -11.15 -11.15 -11.17 -11.19 -11.2 -11.17 -11.11 -11.05 -10.98 -10.94 -10.93 -10.95 -10.99 -11.03 -11.07 -11.11 -11.16 -11.22 -11.29 -11.36 -11.42 -11.46 -11.48 -11.46 -11.43 -11.38 -11.36 -11.38 -11.42 -11.44 -11.46 -11.45 -11.41 -11.35 -11.29 -11.22 -11.16 -11.12 -11.09 -11.07 -11.06 -11.04 -11 -10.93 -10.85 -10.76 -10.73 -10.77 -10.84 -10.91 -11.05 -11.31 -11.77 -12.53 -13.62 -16.8 -22.99 -26.53 -26.85 -29.58 -31.93 -32.19 -32.09 -31.88 -31.17 -26.85 -19.59 -15.32 -14.35 -13.83 -13.45 -13.2 -13.09 -13.06 -13.04 -13.01 -12.97 -12.9 -12.82 -12.72 -12.62 -12.53 -12.45 -12.38 -12.34 -12.32 -12.33 -12.35 -12.4 -12.48 -12.58 -12.66 -12.75 -12.84 -12.94 -13.06 -13.24 -13.5 -13.81 -14.11 -14.34 -14.45 -14.5 -14.53
-9.68 -9.7 -9.71 -9.71 -9.71 -9.69 -9.67 -9.64 -9.62 -9.62 -9.63 -9.64 -9.64 -9.65 -9.65 -9.64 -9.63 -9.6 -9.57 -9.56 -9.58 -9.62 -9.65 -9.68 -9.72 -9.79 -9.92 -10.01 -10 -9.95 -9.88 -9.78 -9.64 -9.47 -9.29 -9.13 -9.02 -8.97 -8.97 -8.99 -9.05 -9.13 -9.22 -9.33 -9.45 -9.55 -9.64 -9.71 -9.75 -9.79 -9.83 -9.87 -9.92 -9.96 -9.99 -10 -9.99 -9.97 -9.98 -9.98 -9.98 -9.98 -9.98 -9.98 -9.98 -9.97 -9.96 -9.93 -9.9 -9.86 -9.82 -9.78 -9.75 -9.73 -9.72 -9.71 -9.72 -9.72 -9.71 -9.68 -9.65 -9.63 -9.61 -9.6 -9.59 -9.59 -9.57 -9.55 -9.55 -9.56 -9.6 -9.65 -9.71 -9.75 -9.78 -9.79 -9.78 -9.78 -9.79 -9.82 -9.86 -9.91 -9.94 -9.97 -10 -10.04 -10.11 -10.16 -10.18 -10.19 -10.2 -10.2 -10.21 -10.22 -10.23 -10.24 -10.26 -10.27 -10.27 -10.26 -10.24 -10.2 -10.14 -10.06 -9.96 -9.84 -9.73 -9.69 -9.73 -9.78 -9.77 -9.73 -9.69 -9.65 -9.59 -9.54 -9.49 -9.45 -9.43 -9.39 -9.31 -9.24 -9.2 -9.18 -9.18 -9.18 -9.19 -9.23 -9.32 -9.44 -9.54 -9.63 -9.69 -9.75 -9.79 -9.82 -9.85 -9.88 -9.92 -9.96 -10 -10.05 -10.1 -10.16 -10.22 -10.28 -10.34 -10.4 -10.44 -10.48 -10.5 -10.52 -10.55 -10.57 -10.59 -10.6 -10.6 -10.59 -10.95 -15.09 -21.27 -25.33 -25.57 -25.39 -25.19 -23.64 -18.82 -12.98 -10.29 -9.93 -9.96 -10 -10.05 -10.1 -10.15 -10.21 -10.25 -10.29 -10.32 -10.35 -10.38 -10.4 -10.42 -10.43 -10.44 -10.44 -10.44 -10.42 -10.41 -10.39 -10.36 -10.34 -10.34 -10.34 -10.34 -10.34 -10.33 -10.32 -10.3 -10.29 -10.31 -10.32 -10.33 -10.32 -10.31 -10.29 -10.28 -10.28 -10.28 -10.28 -10.29 -10.3 -10.29 -10.29 -10.29 -10.31 -10.34 -10.38 -10.44 -10.49 -10.51 -10.51 -10.5 -10.49 -10.47 -10.47 -10.48 -10.51 -10.54 -10.58 -10.61 -10.62 -10.61 -10.6 -10.57 -10.52 -10.46 -10.38 -10.29 -10.21 -10.15 -10.12 -10.12 -10.15 -10.2 -10.26 -10.32 -10.4 -10.51 -10.61 -10.7 -10.77 -10.82 -10.86 -10.87 -10.89 -10.91 -10.93 -10.94 -10.95 -10.95 -10.94 -10.92 -10.88 -10.84 -10.81 -10.78 -10.76 -10.74 -10.73 -10.73 -10.75 -10.76 -10.78 -10.79 -10.79 -10.79 -10.78 -10.77 -10.76 -10.74 -10.72 -10.7 -10.69 -10.68 -10.67 -10.66 -10.66 -10.66 -10.67 -10.69 -10.71 -10.73 -10.76 -10.77 -10.78 -10.78 -10.78 -10.78 -10.77 -10.75 -10.73 -10.71 -10.69 -10.67 -10.64 -10.61 -10.59 -10.57 -10.59 -10.65 -10.75 -10.88 -11.01 -11.16 -11.31 -11.43 -11.49 -11.5 -11.48 -11.45 -11.42 -11.38 -11.36 -11.34 -11.33 -11.3 -11.28 -11.27 -11.27 -11.27 -11.26 -11.22 -11.18 -11.18 -11.19 -11.21 -11.2 -11.17 -11.12 -11.06 -11 -10.96 -10.95 -10.97 -11 -11.04 -11.07 -11.11 -11.15 -11.22 -11.29 -11.36 -11.42 -11.46 -11.47 -11.46 -11.42 -11.37 -11.34 -11.35 -11.37 -11.39 -11.41 -11.4 -11.37 -11.32 -11.27 -11.21 -11.17 -11.13 -11.1 -11.08 -11.07 -11.05 -11.02 -10.96 -10.87 -10.79 -10.76 -10.8 -10.86 -10.93 -11.08 -11.33 -11.73 -12.39 -13.64 -17.74 -24.67 -27.28 -26.32 -29.02 -31.72 -31.97 -31.84 -31.63 -30.97 -26.85 -19.74 -15.24 -14.27 -13.75 -13.37 -13.16 -13.07 -13.04 -13.02 -12.99 -12.95 -12.89 -12.82 -12.72 -12.63 -12.55 -12.46 -12.39 -12.34 -12.32 -12.32 -12.35 -12.39 -12.47 -12.58 -12.67 -12.74 -12.81 -12.89 -13 -13.17 -13.43 -13.74 -14.06 -14.32 -14.48 -14.58 -14.69
-9.69 -9.7 -9.7 -9.7 -9.69 -9.67 -9.65 -9.63 -9.62 -9.62 -9.63 -9.64 -9.65 -9.66 -9.66 -9.65 -9.64 -9.61 -9.58 -9.56 -9.58 -9.6 -9.63 -9.66 -9.7 -9.78 -9.92 -10.01 -10.02 -9.99 -9.94 -9.86 -9.72 -9.54 -9.35 -9.19 -9.09 -9.05 -9.05 -9.09 -9.15 -9.21 -9.28 -9.36 -9.46 -9.56 -9.65 -9.72 -9.76 -9.8 -9.84 -9.88 -9.93 -9.98 -10.01 -10.02 -10.01 -10 -10.01 -10.03 -10.03 -10.03 -10.02 -10.02 -10.01 -10 -9.99 -9.96 -9.91 -9.86 -9.82 -9.78 -9.75 -9.73 -9.71 -9.71 -9.71 -9.71 -9.7 -9.67 -9.64 -9.6 -9.57 -9.55 -9.54 -9.52 -9.5 -9.48 -9.47 -9.49 -9.53 -9.59 -9.64 -9.69 -9.73 -9.76 -9.78 -9.79 -9.81 -9.84 -9.87 -9.91 -9.93 -9.95 -9.97 -10.01 -10.07 -10.13 -10.17 -10.18 -10.19 -10.21 -10.22 -10.23 -10.25 -10.27 -10.29 -10.3 -10.29 -10.27 -10.24 -10.21 -10.15 -10.07 -9.98 -9.88 -9.79 -9.75 -9.77 -9.8 -9.79 -9.76 -9.73 -9.69 -9.65 -9.6 -9.56 -9.53 -9.51 -9.47 -9.39 -9.31 -9.26 -9.23 -9.23 -9.24 -9.25 -9.3 -9.38 -9.48 -9.57 -9.65 -9.72 -9.77 -9.81 -9.85 -9.88 -9.91 -9.95 -9.98 -10.01 -10.05 -10.09 -10.14 -10.19 -10.24 -10.3 -10.36 -10.41 -10.45 -10.48 -10.5 -10.53 -10.56 -10.59 -10.6 -10.61 -10.6 -10.97 -13.69 -19.61 -24.39 -25.71 -25.56 -25.36 -24.81 -20.61 -14.05 -10.32 -9.95 -9.97 -10.01 -10.06 -10.1 -10.15 -10.21 -10.26 -10.3 -10.33 -10.35 -10.37 -10.39 -10.4 -10.41 -10.42 -10.42 -10.41 -10.4 -10.39 -10.38 -10.35 -10.33 -10.33 -10.33 -10.34 -10.35 -10.35 -10.34 -10.33 -10.33 -10.34 -10.36 -10.36 -10.35 -10.34 -10.32 -10.31 -10.31 -10.31 -10.31 -10.33 -10.34 -10.33 -10.32 -10.32 -10.33 -10.36 -10.41 -10.46 -10.5 -10.51 -10.5 -10.48 -10.46 -10.44 -10.43 -10.44 -10.45 -10.48 -10.51 -10.53 -10.54 -10.53 -10.52 -10.49 -10.44 -10.37 -10.29 -10.21 -10.13 -10.08 -10.06 -10.08 -10.14 -10.21 -10.28 -10.35 -10.43 -10.53 -10.64 -10.72 -10.78 -10.82 -10.85 -10.87 -10.88 -10.9 -10.92 -10.93 -10.94 -10.94 -10.93 -10.9 -10.87 -10.83 -10.8 -10.77 -10.75 -10.73 -10.72 -10.72 -10.74 -10.75 -10.77 -10.77 -10.77 -10.77 -10.77 -10.76 -10.74 -10.73 -10.72 -10.71 -10.7 -10.69 -10.68 -10.68 -10.67 -10.67 -10.68 -10.69 -10.71 -10.73 -10.75 -10.77 -10.78 -10.78 -10.78 -10.78 -10.78 -10.76 -10.74 -10.73 -10.71 -10.7 -10.67 -10.65 -10.64 -10.65 -10.68 -10.74 -10.84 -10.95 -11.07 -11.19 -11.31 -11.39 -11.43 -11.42 -11.4 -11.39 -11.38 -11.37 -11.36 -11.36 -11.35 -11.34 -11.33 -11.33 -11.34 -11.34 -11.33 -11.29 -11.26 -11.25 -11.24 -11.24 -11.23 -11.19 -11.14 -11.09 -11.04 -11.01 -11 -11.02 -11.04 -11.07 -11.09 -11.12 -11.17 -11.23 -11.3 -11.36 -11.41 -11.45 -11.47 -11.46 -11.43 -11.39 -11.36 -11.35 -11.35 -11.36 -11.37 -11.36 -11.35 -11.31 -11.27 -11.22 -11.17 -11.14 -11.11 -11.09 -11.07 -11.04 -11 -10.94 -10.87 -10.79 -10.77 -10.81 -10.87 -10.93 -11.07 -11.33 -11.72 -12.29 -13.52 -18.27 -25.54 -27.17 -25.53 -27.96 -31.29 -31.61 -31.46 -31.28 -30.68 -27.28 -20.63 -15.7 -14.11 -13.66 -13.36 -13.18 -13.09 -13.04 -13.01 -12.97 -12.93 -12.87 -12.8 -12.71 -12.61 -12.53 -12.44 -12.37 -12.32 -12.31 -12.31 -12.33 -12.38 -12.46 -12.56 -12.65 -12.72 -12.77 -12.84 -12.94 -13.11 -13.37 -13.66 -13.98 -14.28 -14.48 -14.65 -14.86
-9.7 -9.7 -9.7 -9.69 -9.68 -9.66 -9.64 -9.63 -9.63 -9.63 -9.65 -9.67 -9.68 -9.68 -9.68 -9.67 -9.66 -9.63 -9.6 -9.58 -9.58 -9.6 -9.62 -9.64 -9.69 -9.78 -9.91 -10.01 -10.04 -10.02 -9.99 -9.91 -9.79 -9.63 -9.46 -9.29 -9.17 -9.13 -9.13 -9.16 -9.22 -9.29 -9.34 -9.39 -9.47 -9.56 -9.64 -9.71 -9.76 -9.8 -9.84 -9.89 -9.94 -9.99 -10.02 -10.04 -10.02 -10.01 -10.04 -10.06 -10.07 -10.06 -10.05 -10.05 -10.05 -10.04 -10.04 -10.01 -9.95 -9.89 -9.84 -9.8 -9.76 -9.74 -9.73 -9.72 -9.72 -9.72 -9.7 -9.68 -9.64 -9.59 -9.55 -9.52 -9.5 -9.48 -9.45 -9.43 -9.42 -9.44 -9.48 -9.54 -9.6 -9.65 -9.7 -9.74 -9.77 -9.8 -9.83 -9.86 -9.89 -9.91 -9.92 -9.94 -9.95 -9.99 -10.05 -10.11 -10.15 -10.17 -10.19 -10.21 -10.22 -10.24 -10.26 -10.28 -10.3 -10.3 -10.29 -10.26 -10.24 -10.2 -10.16 -10.1 -10.02 -9.94 -9.86 -9.82 -9.82 -9.83 -9.81 -9.78 -9.75 -9.73 -9.69 -9.66 -9.63 -9.61 -9.6 -9.55 -9.47 -9.38 -9.32 -9.29 -9.28 -9.29 -9.32 -9.37 -9.45 -9.54 -9.61 -9.68 -9.74 -9.79 -9.84 -9.88 -9.91 -9.94 -9.97 -10 -10.03 -10.05 -10.08 -10.11 -10.16 -10.21 -10.26 -10.32 -10.37 -10.42 -10.45 -10.48 -10.52 -10.55 -10.58 -10.6 -10.61 -10.61 -10.6 -12.01 -16.84 -22.78 -25.47 -25.72 -25.54 -24.98 -21.1 -14.12 -10.35 -9.96 -9.98 -10.01 -10.06 -10.11 -10.16 -10.21 -10.26 -10.3 -10.34 -10.36 -10.38 -10.39 -10.4 -10.4 -10.4 -10.4 -10.4 -10.39 -10.38 -10.37 -10.35 -10.33 -10.33 -10.34 -10.35 -10.37 -10.38 -10.38 -10.37 -10.37 -10.39 -10.4 -10.4 -10.39 -10.37 -10.36 -10.35 -10.35 -10.35 -10.37 -10.39 -10.4 -10.38 -10.37 -10.36 -10.37 -10.39 -10.43 -10.47 -10.51 -10.51 -10.49 -10.47 -10.44 -10.42 -10.41 -10.41 -10.42 -10.43 -10.45 -10.46 -10.46 -10.45 -10.43 -10.4 -10.35 -10.29 -10.22 -10.16 -10.1 -10.06 -10.06 -10.09 -10.15 -10.23 -10.31 -10.38 -10.47 -10.56 -10.65 -10.72 -10.78 -10.81 -10.84 -10.85 -10.86 -10.88 -10.9 -10.91 -10.92 -10.92 -10.91 -10.89 -10.86 -10.83 -10.81 -10.78 -10.76 -10.74 -10.73 -10.74 -10.75 -10.76 -10.77 -10.77 -10.77 -10.77 -10.76 -10.75 -10.74 -10.73 -10.72 -10.72 -10.72 -10.71 -10.7 -10.7 -10.69 -10.69 -10.7 -10.7 -10.72 -10.74 -10.76 -10.77 -10.78 -10.78 -10.78 -10.78 -10.78 -10.77 -10.75 -10.74 -10.73 -10.72 -10.7 -10.7 -10.7 -10.73 -10.77 -10.83 -10.92 -11.03 -11.13 -11.22 -11.3 -11.35 -11.36 -11.35 -11.33 -11.34 -11.36 -11.37 -11.38 -11.38 -11.39 -11.39 -11.4 -11.4 -11.41 -11.41 -11.4 -11.38 -11.35 -11.33 -11.31 -11.28 -11.25 -11.22 -11.17 -11.13 -11.09 -11.07 -11.06 -11.07 -11.09 -11.1 -11.12 -11.15 -11.19 -11.24 -11.31 -11.37 -11.41 -11.45 -11.46 -11.46 -11.44 -11.41 -11.38 -11.36 -11.34 -11.34 -11.34 -11.33 -11.33 -11.31 -11.28 -11.23 -11.18 -11.14 -11.11 -11.08 -11.05 -11.01 -10.95 -10.89 -10.83 -10.77 -10.76 -10.81 -10.87 -10.92 -11.05 -11.32 -11.76 -12.35 -13.48 -18.14 -25.29 -27.59 -25.69 -27.1 -30.27 -31.2 -31.03 -30.89 -30.56 -28.05 -22.28 -16.58 -14.24 -13.66 -13.42 -13.26 -13.16 -13.09 -13.03 -12.97 -12.91 -12.84 -12.75 -12.66 -12.56 -12.48 -12.41 -12.34 -12.31 -12.3 -12.3 -12.33 -12.37 -12.43 -12.52 -12.61 -12.68 -12.74 -12.8 -12.89 -13.04 -13.27 -13.55 -13.88 -14.19 -14.45 -14.69 -14.99
-9.71 -9.71 -9.7 -9.69 -9.68 -9.67 -9.65 -9.64 -9.65 -9.66 -9.68 -9.7 -9.71 -9.72 -9.71 -9.7 -9.68 -9.65 -9.62 -9.6 -9.6 -9.61 -9.61 -9.63 -9.68 -9.77 -9.91 -10.01 -10.06 -10.07 -10.04 -9.97 -9.85 -9.72 -9.57 -9.41 -9.28 -9.21 -9.19 -9.22 -9.27 -9.34 -9.38 -9.43 -9.5 -9.57 -9.64 -9.7 -9.75 -9.79 -9.83 -9.88 -9.93 -9.99 -10.03 -10.04 -10.02 -10.01 -10.04 -10.08 -10.09 -10.09 -10.08 -10.08 -10.08 -10.09 -10.09 -10.07 -10.01 -9.94 -9.88 -9.83 -9.79 -9.77 -9.75 -9.75 -9.74 -9.73 -9.72 -9.69 -9.65 -9.6 -9.55 -9.51 -9.48 -9.45 -9.43 -9.4 -9.39 -9.4 -9.44 -9.5 -9.56 -9.63 -9.68 -9.73 -9.77 -9.81 -9.85 -9.87 -9.9 -9.91 -9.92 -9.93 -9.95 -9.98 -10.04 -10.09 -10.13 -10.15 -10.18 -10.2 -10.22 -10.24 -10.26 -10.28 -10.29 -10.29 -10.26 -10.24 -10.22 -10.21 -10.18 -10.13 -10.07 -10 -9.94 -9.9 -9.89 -9.87 -9.84 -9.8 -9.78 -9.76 -9.73 -9.71 -9.7 -9.69 -9.66 -9.62 -9.54 -9.46 -9.39 -9.35 -9.33 -9.35 -9.38 -9.44 -9.52 -9.59 -9.66 -9.71 -9.76 -9.81 -9.85 -9.89 -9.93 -9.96 -9.99 -10.02 -10.04 -10.05 -10.07 -10.1 -10.13 -10.18 -10.23 -10.28 -10.34 -10.39 -10.43 -10.47 -10.5 -10.54 -10.58 -10.61 -10.62 -10.63 -11.02 -11.39 -15.57 -21.84 -25.6 -25.85 -25.67 -25.1 -21.21 -14.19 -10.39 -9.99 -10 -10.03 -10.08 -10.13 -10.18 -10.23 -10.27 -10.31 -10.35 -10.38 -10.4 -10.41 -10.41 -10.41 -10.4 -10.4 -10.39 -10.39 -10.38 -10.37 -10.35 -10.34 -10.35 -10.36 -10.38 -10.41 -10.42 -10.43 -10.42 -10.42 -10.44 -10.44 -10.44 -10.44 -10.43 -10.42 -10.41 -10.41 -10.42 -10.44 -10.46 -10.47 -10.45 -10.43 -10.42 -10.41 -10.42 -10.44 -10.48 -10.5 -10.5 -10.48 -10.46 -10.44 -10.42 -10.4 -10.4 -10.39 -10.39 -10.38 -10.38 -10.37 -10.36 -10.34 -10.3 -10.26 -10.21 -10.17 -10.13 -10.1 -10.08 -10.09 -10.13 -10.19 -10.26 -10.34 -10.42 -10.51 -10.59 -10.67 -10.72 -10.77 -10.79 -10.82 -10.83 -10.84 -10.85 -10.87 -10.88 -10.9 -10.9 -10.9 -10.89 -10.87 -10.85 -10.83 -10.81 -10.8 -10.78 -10.77 -10.78 -10.78 -10.79 -10.79 -10.78 -10.78 -10.77 -10.76 -10.75 -10.75 -10.74 -10.74 -10.74 -10.74 -10.74 -10.73 -10.73 -10.72 -10.72 -10.71 -10.72 -10.73 -10.75 -10.76 -10.78 -10.78 -10.79 -10.79 -10.79 -10.78 -10.77 -10.76 -10.75 -10.74 -10.73 -10.72 -10.73 -10.75 -10.79 -10.84 -10.91 -10.99 -11.08 -11.16 -11.24 -11.28 -11.31 -11.31 -11.29 -11.29 -11.31 -11.35 -11.38 -11.4 -11.41 -11.43 -11.44 -11.45 -11.46 -11.47 -11.47 -11.47 -11.45 -11.43 -11.4 -11.36 -11.32 -11.28 -11.24 -11.2 -11.17 -11.14 -11.12 -11.12 -11.12 -11.13 -11.13 -11.15 -11.18 -11.21 -11.26 -11.31 -11.37 -11.41 -11.44 -11.46 -11.46 -11.45 -11.43 -11.4 -11.37 -11.34 -11.32 -11.31 -11.31 -11.31 -11.3 -11.28 -11.23 -11.18 -11.14 -11.1 -11.07 -11.03 -10.98 -10.91 -10.85 -10.8 -10.76 -10.75 -10.81 -10.87 -10.92 -11.05 -11.32 -11.79 -12.42 -13.52 -17.35 -24.31 -28.05 -26.59 -26.45 -28.5 -30.61 -30.68 -30.53 -30.19 -28.7 -23.65 -17.79 -14.18 -13.72 -13.54 -13.4 -13.27 -13.16 -13.06 -12.98 -12.9 -12.8 -12.7 -12.6 -12.51 -12.43 -12.37 -12.33 -12.31 -12.3 -12.31 -12.33 -12.37 -12.42 -12.49 -12.56 -12.64 -12.7 -12.77 -12.85 -12.97 -13.16 -13.43 -13.75 -14.1 -14.41 -14.72 -15.07
-9.74 -9.73 -9.72 -9.71 -9.7 -9.69 -9.68 -9.68 -9.68 -9.69 -9.71 -9.73 -9.75 -9.75 -9.74 -9.72 -9.7 -9.68 -9.65 -9.62 -9.62 -9.61 -9.61 -9.63 -9.67 -9.75 -9.88 -10 -10.07 -10.1 -10.08 -10.02 -9.92 -9.8 -9.67 -9.53 -9.4 -9.3 -9.26 -9.26 -9.3 -9.35 -9.4 -9.46 -9.52 -9.59 -9.64 -9.68 -9.74 -9.78 -9.83 -9.88 -9.93 -9.98 -10.02 -10.03 -10.01 -10.01 -10.05 -10.1 -10.11 -10.11 -10.1 -10.1 -10.11 -10.12 -10.14 -10.13 -10.07 -10 -9.93 -9.87 -9.83 -9.8 -9.79 -9.78 -9.76 -9.75 -9.73 -9.71 -9.66 -9.61 -9.56 -9.51 -9.47 -9.44 -9.42 -9.4 -9.38 -9.38 -9.42 -9.48 -9.54 -9.61 -9.67 -9.73 -9.78 -9.83 -9.86 -9.89 -9.91 -9.92 -9.92 -9.93 -9.94 -9.98 -10.03 -10.08 -10.11 -10.13 -10.16 -10.19 -10.22 -10.24 -10.26 -10.27 -10.27 -10.25 -10.22 -10.19 -10.2 -10.21 -10.2 -10.17 -10.12 -10.07 -10.02 -9.98 -9.96 -9.93 -9.89 -9.84 -9.81 -9.79 -9.77 -9.76 -9.76 -9.75 -9.72 -9.67 -9.6 -9.52 -9.45 -9.4 -9.38 -9.4 -9.45 -9.51 -9.57 -9.63 -9.69 -9.74 -9.78 -9.81 -9.85 -9.9 -9.93 -9.96 -9.99 -10.01 -10.03 -10.05 -10.07 -10.1 -10.13 -10.17 -10.21 -10.27 -10.33 -10.38 -10.42 -10.46 -10.5 -10.54 -10.58 -10.61 -11.03 -12.1 -13.84 -15.27 -18.04 -22.97 -25.68 -25.94 -25.37 -24.81 -20.92 -14.25 -10.44 -10.03 -10.03 -10.06 -10.1 -10.15 -10.2 -10.24 -10.29 -10.34 -10.37 -10.41 -10.43 -10.44 -10.44 -10.44 -10.43 -10.42 -10.41 -10.41 -10.41 -10.4 -10.39 -10.38 -10.39 -10.41 -10.43 -10.46 -10.48 -10.5 -10.5 -10.49 -10.5 -10.51 -10.51 -10.51 -10.51 -10.89 -10.49 -10.49 -10.51 -10.53 -10.56 -10.56 -10.54 -10.51 -10.48 -10.46 -10.45 -10.46 -10.48 -10.5 -10.5 -10.48 -10.46 -10.44 -10.42 -10.4 -10.38 -10.37 -10.34 -10.31 -10.29 -10.28 -10.26 -10.24 -10.21 -10.18 -10.15 -10.14 -10.12 -10.11 -10.11 -10.13 -10.18 -10.24 -10.31 -10.38 -10.45 -10.54 -10.62 -10.68 -10.73 -10.75 -10.78 -10.79 -10.8 -10.81 -10.82 -10.84 -10.85 -10.87 -10.88 -10.89 -10.88 -10.88 -10.87 -10.86 -10.86 -10.84 -10.83 -10.83 -10.83 -10.83 -10.82 -10.81 -10.8 -10.79 -10.78 -10.77 -10.77 -10.76 -10.76 -10.76 -10.77 -10.77 -10.77 -10.77 -10.76 -10.75 -10.74 -10.74 -10.74 -10.74 -10.76 -10.77 -10.79 -10.8 -10.8 -10.8 -10.8 -10.79 -10.78 -10.77 -10.76 -10.74 -10.74 -10.74 -10.76 -10.79 -10.84 -10.9 -10.97 -11.04 -11.11 -11.18 -11.23 -11.26 -11.28 -11.28 -11.27 -11.28 -11.33 -11.38 -11.41 -11.43 -11.45 -11.46 -11.48 -11.49 -11.5 -11.51 -11.51 -11.52 -11.51 -11.48 -11.45 -11.41 -11.37 -11.32 -11.27 -11.23 -11.19 -11.17 -11.17 -11.17 -11.17 -11.17 -11.17 -11.18 -11.2 -11.24 -11.28 -11.32 -11.36 -11.4 -11.43 -11.45 -11.45 -11.45 -11.44 -11.41 -11.38 -11.34 -11.32 -11.3 -11.3 -11.29 -11.28 -11.26 -11.21 -11.16 -11.11 -11.07 -11.04 -11.01 -10.96 -10.9 -10.84 -10.8 -10.78 -10.79 -10.85 -10.9 -10.94 -11.07 -11.34 -11.79 -12.45 -13.29 -16.19 -22.19 -27.61 -27.54 -25.84 -26.75 -29.23 -30.43 -30.25 -30.02 -28.98 -25.62 -19.9 -15.33 -13.82 -13.71 -13.56 -13.4 -13.25 -13.12 -13.02 -12.92 -12.8 -12.68 -12.56 -12.46 -12.39 -12.35 -12.32 -12.31 -12.32 -12.33 -12.35 -12.37 -12.41 -12.46 -12.53 -12.6 -12.67 -12.74 -12.82 -12.92 -13.06 -13.29 -13.61 -13.98 -14.37 -14.76 -15.16
-9.78 -9.76 -9.75 -9.75 -9.74 -9.73 -9.73 -9.73 -9.73 -9.74 -9.75 -9.77 -9.78 -9.78 -9.76 -9.74 -9.72 -9.69 -9.66 -9.64 -9.64 -9.63 -9.62 -9.63 -9.66 -9.74 -9.86 -9.98 -10.08 -10.13 -10.12 -10.07 -9.99 -9.89 -9.77 -9.64 -9.5 -9.39 -9.32 -9.29 -9.31 -9.35 -9.41 -9.47 -9.54 -9.6 -9.64 -9.68 -9.73 -9.78 -9.83 -9.88 -9.93 -9.98 -10.02 -10.03 -10 -10 -10.06 -10.12 -10.13 -10.12 -10.11 -10.11 -10.12 -10.14 -10.17 -10.17 -10.12 -10.05 -9.97 -9.91 -9.87 -9.84 -9.82 -9.81 -9.79 -9.78 -9.76 -9.74 -9.69 -9.64 -9.58 -9.53 -9.49 -9.45 -9.43 -9.4 -9.38 -9.38 -9.41 -9.47 -9.53 -9.59 -9.67 -9.74 -9.8 -9.84 -9.88 -9.9 -9.92 -9.92 -9.93 -9.94 -9.95 -9.99 -10.03 -10.07 -10.1 -10.12 -10.15 -10.18 -10.21 -10.23 -10.24 -10.25 -10.23 -10.2 -10.16 -10.14 -10.18 -10.22 -10.23 -10.22 -10.18 -10.13 -10.09 -10.05 -10.03 -10.01 -9.95 -9.9 -9.85 -9.83 -9.82 -9.81 -9.81 -9.8 -9.77 -9.71 -9.64 -9.57 -9.49 -9.44 -9.43 -9.46 -9.51 -9.57 -9.62 -9.67 -9.71 -9.75 -9.78 -9.81 -9.85 -9.89 -9.92 -9.95 -9.98 -10 -10.02 -10.05 -10.08 -10.1 -10.13 -10.17 -10.21 -10.26 -10.32 -10.38 -10.42 -10.46 -10.5 -10.54 -10.97 -12.07 -14.23 -17.06 -19.93 -21.66 -23.07 -25.15 -26.12 -24.56 -22.67 -21.09 -18.24 -13.28 -10.49 -10.08 -10.08 -10.11 -10.15 -10.18 -10.22 -10.27 -10.32 -10.37 -10.41 -10.44 -10.46 -10.48 -10.49 -10.49 -10.48 -10.47 -10.46 -10.46 -10.46 -10.46 -10.45 -10.45 -10.46 -10.48 -10.5 -10.54 -10.57 -10.59 -10.59 -10.58 -10.58 -10.59 -10.6 -10.61 -11.67 -12.75 -12.06 -10.61 -10.62 -10.64 -10.66 -10.66 -10.64 -10.6 -10.56 -10.52 -10.5 -10.5 -10.51 -10.52 -10.51 -10.5 -10.47 -10.45 -10.42 -10.4 -10.37 -10.33 -10.29 -10.24 -10.21 -10.19 -10.18 -10.16 -10.14 -10.12 -10.12 -10.12 -10.12 -10.13 -10.14 -10.17 -10.22 -10.29 -10.35 -10.42 -10.48 -10.56 -10.63 -10.7 -10.73 -10.75 -10.77 -10.78 -10.79 -10.79 -10.8 -10.81 -10.83 -10.85 -10.87 -10.88 -10.89 -10.89 -10.9 -10.9 -10.91 -10.9 -10.9 -10.89 -10.88 -10.87 -10.86 -10.84 -10.83 -10.82 -10.81 -10.79 -10.79 -10.78 -10.78 -10.79 -10.8 -10.8 -10.8 -10.8 -10.79 -10.78 -10.78 -10.77 -10.76 -10.76 -10.77 -10.79 -10.81 -10.82 -10.82 -10.82 -10.81 -10.8 -10.79 -10.77 -10.76 -10.75 -10.74 -10.75 -10.78 -10.81 -10.87 -10.93 -11.01 -11.07 -11.13 -11.18 -11.21 -11.24 -11.26 -11.27 -11.28 -11.31 -11.36 -11.42 -11.46 -11.48 -11.49 -11.5 -11.51 -11.52 -11.52 -11.53 -11.54 -11.55 -11.54 -11.52 -11.49 -11.46 -11.41 -11.36 -11.3 -11.25 -11.21 -11.19 -11.19 -11.2 -11.2 -11.2 -11.21 -11.21 -11.23 -11.26 -11.29 -11.32 -11.36 -11.39 -11.42 -11.43 -11.44 -11.43 -11.42 -11.41 -11.38 -11.35 -11.33 -11.31 -11.29 -11.28 -11.26 -11.22 -11.18 -11.13 -11.08 -11.04 -11.01 -10.98 -10.95 -10.91 -10.88 -10.85 -10.84 -10.86 -10.91 -10.96 -11 -11.14 -11.4 -11.83 -12.46 -13.29 -15.12 -20.44 -26.84 -28.73 -26.97 -26.82 -28.42 -29.89 -30.08 -29.86 -29.56 -27.77 -22.98 -17.44 -14.33 -13.87 -13.72 -13.54 -13.36 -13.21 -13.09 -12.98 -12.84 -12.68 -12.53 -12.42 -12.36 -12.33 -12.32 -12.33 -12.34 -12.36 -12.38 -12.41 -12.44 -12.48 -12.54 -12.6 -12.67 -12.74 -12.81 -12.89 -13 -13.19 -13.49 -13.88 -14.34 -14.81 -15.25
-9.83 -9.81 -9.8 -9.79 -9.79 -9.79 -9.79 -9.79 -9.78 -9.78 -9.79 -9.81 -9.81 -9.81 -9.79 -9.77 -9.74 -9.7 -9.68 -9.67 -9.66 -9.65 -9.63 -9.63 -9.66 -9.73 -9.84 -9.96 -10.07 -10.14 -10.14 -10.11 -10.05 -9.96 -9.85 -9.73 -9.6 -9.47 -9.39 -9.34 -9.35 -9.39 -9.44 -9.5 -9.56 -9.61 -9.65 -9.69 -9.74 -9.79 -9.84 -9.89 -9.95 -9.99 -10.02 -10.02 -10 -10 -10.07 -10.13 -10.14 -10.13 -10.12 -10.11 -10.12 -10.14 -10.18 -10.19 -10.15 -10.08 -10 -9.94 -9.91 -9.88 -9.86 -9.84 -9.83 -9.83 -9.82 -9.79 -9.74 -9.68 -9.63 -9.58 -9.52 -9.48 -9.45 -9.43 -9.41 -9.4 -9.43 -9.48 -9.53 -9.59 -9.67 -9.74 -9.8 -9.85 -9.89 -9.91 -9.93 -9.94 -9.95 -9.96 -9.98 -10 -10.04 -10.08 -10.1 -10.12 -10.14 -10.17 -10.2 -10.22 -10.23 -10.22 -10.2 -10.16 -10.11 -10.1 -10.16 -10.23 -10.27 -10.27 -10.24 -10.2 -10.15 -10.12 -10.11 -10.08 -10.02 -9.95 -9.9 -9.88 -9.87 -9.86 -9.86 -9.84 -9.81 -9.76 -9.69 -9.61 -9.54 -9.49 -9.48 -9.5 -9.56 -9.62 -9.66 -9.7 -9.73 -9.76 -9.79 -9.81 -9.84 -9.87 -9.9 -9.93 -9.96 -9.98 -10.01 -10.04 -10.08 -10.11 -10.14 -10.17 -10.21 -10.26 -10.33 -10.38 -10.43 -10.46 -10.89 -11.98 -14.16 -16.62 -19.54 -22.75 -24.88 -25.91 -25.88 -26.21 -24.31 -20.74 -16.72 -14.88 -13.38 -11.23 -10.16 -10.13 -10.14 -10.17 -10.2 -10.23 -10.26 -10.3 -10.35 -10.4 -10.44 -10.48 -10.51 -10.53 -10.55 -10.55 -10.54 -10.54 -10.54 -10.55 -10.55 -10.55 -10.55 -10.55 -10.56 -10.57 -10.59 -10.63 -10.68 -10.71 -10.7 -10.69 -10.69 -10.71 -10.73 -11.13 -13.57 -16.9 -15.76 -12.23 -10.77 -10.78 -10.78 -10.77 -10.75 -10.71 -10.65 -10.6 -10.58 -10.57 -10.58 -10.58 -10.57 -10.55 -10.52 -10.48 -10.43 -10.39 -10.34 -10.28 -10.23 -10.18 -10.16 -10.14 -10.13 -10.12 -10.11 -10.11 -10.12 -10.13 -10.14 -10.16 -10.18 -10.21 -10.26 -10.32 -10.38 -10.44 -10.51 -10.58 -10.65 -10.71 -10.74 -10.76 -10.77 -10.78 -10.79 -10.8 -10.81 -10.82 -10.83 -10.85 -10.87 -10.89 -10.9 -10.92 -10.94 -10.95 -10.96 -10.96 -10.95 -10.94 -10.92 -10.91 -10.89 -10.87 -10.86 -10.85 -10.83 -10.82 -10.81 -10.81 -10.81 -10.82 -10.83 -10.83 -10.83 -10.83 -10.82 -10.81 -10.81 -10.8 -10.79 -10.78 -10.79 -10.81 -10.83 -10.84 -10.84 -10.83 -10.82 -10.81 -10.8 -10.78 -10.77 -10.76 -10.75 -10.77 -10.8 -10.84 -10.9 -10.97 -11.03 -11.09 -11.14 -11.17 -11.19 -11.22 -11.24 -11.27 -11.31 -11.35 -11.41 -11.47 -11.5 -11.52 -11.53 -11.53 -11.54 -11.54 -11.54 -11.55 -11.57 -11.58 -11.57 -11.55 -11.53 -11.5 -11.45 -11.4 -11.33 -11.27 -11.23 -11.21 -11.21 -11.22 -11.23 -11.24 -11.24 -11.24 -11.25 -11.26 -11.29 -11.31 -11.35 -11.38 -11.4 -11.41 -11.41 -11.41 -11.4 -11.39 -11.38 -11.37 -11.34 -11.31 -11.29 -11.26 -11.23 -11.18 -11.14 -11.09 -11.05 -11.01 -10.99 -10.98 -10.97 -10.95 -10.94 -10.93 -10.92 -10.93 -10.99 -11.05 -11.11 -11.24 -11.5 -11.92 -12.46 -13.1 -14.51 -19.25 -26.28 -29.95 -29.1 -27.8 -27.68 -29.17 -30.02 -29.79 -29.53 -28.93 -25.74 -20.24 -15.48 -14.03 -13.89 -13.71 -13.53 -13.37 -13.22 -13.07 -12.9 -12.71 -12.54 -12.41 -12.34 -12.32 -12.33 -12.35 -12.38 -12.41 -12.44 -12.48 -12.52 -12.56 -12.61 -12.67 -12.73 -12.79 -12.85 -12.92 -13.02 -13.2 -13.5 -13.9 -14.37 -14.86 -15.31
-9.88 -9.85 -9.84 -9.84 -9.84 -9.85 -9.85 -9.84 -9.83 -9.82 -9.83 -9.84 -9.84 -9.84 -9.82 -9.8 -9.76 -9.73 -9.7 -9.69 -9.68 -9.66 -9.64 -9.64 -9.67 -9.74 -9.84 -9.95 -10.06 -10.14 -10.16 -10.14 -10.1 -10.02 -9.93 -9.82 -9.68 -9.54 -9.45 -9.4 -9.41 -9.45 -9.49 -9.54 -9.59 -9.63 -9.67 -9.71 -9.76 -9.81 -9.86 -9.9 -9.96 -10 -10.03 -10.02 -10 -10 -10.07 -10.13 -10.14 -10.13 -10.11 -10.11 -10.11 -10.13 -10.16 -10.18 -10.16 -10.1 -10.03 -9.98 -9.95 -9.92 -9.9 -9.88 -9.89 -9.9 -9.9 -9.87 -9.81 -9.74 -9.69 -9.63 -9.57 -9.52 -9.49 -9.46 -9.44 -9.44 -9.46 -9.5 -9.55 -9.61 -9.68 -9.75 -9.81 -9.86 -9.9 -9.92 -9.94 -9.95 -9.97 -9.98 -10 -10.03 -10.07 -10.1 -10.12 -10.14 -10.15 -10.18 -10.2 -10.21 -10.21 -10.2 -10.17 -10.13 -10.08 -10.09 -10.16 -10.25 -10.3 -10.31 -10.29 -10.25 -10.21 -10.18 -10.17 -10.14 -10.08 -10 -9.95 -9.92 -9.91 -9.91 -9.9 -9.89 -9.86 -9.8 -9.73 -9.65 -9.58 -9.53 -9.52 -9.54 -9.59 -9.65 -9.7 -9.73 -9.75 -9.77 -9.79 -9.81 -9.84 -9.87 -9.89 -9.91 -9.93 -9.96 -9.99 -10.04 -10.08 -10.11 -10.15 -10.18 -10.22 -10.27 -10.33 -10.39 -10.43 -11.52 -14.06 -16.51 -18.38 -19.49 -21.68 -24.5 -25.94 -26.31 -26.28 -24.39 -20.83 -15.78 -12.24 -10.73 -10.67 -10.24 -10.21 -10.2 -10.21 -10.23 -10.26 -10.28 -10.31 -10.35 -10.4 -10.44 -10.48 -10.52 -10.55 -10.58 -10.6 -10.61 -10.62 -10.62 -10.63 -10.64 -10.65 -10.66 -10.67 -10.68 -10.68 -10.68 -10.69 -10.73 -10.78 -10.82 -10.82 -10.81 -10.82 -10.85 -10.87 -11.28 -15.24 -20.28 -19.59 -14.19 -11.32 -10.92 -10.91 -10.88 -10.85 -10.8 -10.74 -10.68 -10.66 -10.66 -10.65 -10.66 -10.65 -10.64 -10.59 -10.52 -10.45 -10.38 -10.31 -10.24 -10.18 -10.15 -10.13 -10.12 -10.12 -10.12 -10.12 -10.13 -10.15 -10.16 -10.18 -10.2 -10.22 -10.25 -10.3 -10.35 -10.41 -10.47 -10.53 -10.6 -10.67 -10.72 -10.75 -10.77 -10.79 -10.81 -10.82 -10.82 -10.83 -10.84 -10.86 -10.87 -10.88 -10.9 -10.93 -10.95 -10.98 -11 -11.01 -11.01 -10.99 -10.97 -10.95 -10.93 -10.91 -10.9 -10.89 -10.87 -10.86 -10.86 -10.85 -10.84 -10.84 -10.85 -10.85 -10.85 -10.85 -10.85 -10.84 -10.84 -10.84 -10.83 -10.82 -10.81 -10.82 -10.84 -10.86 -10.87 -10.86 -10.85 -10.84 -10.82 -10.81 -10.79 -10.78 -10.77 -10.77 -10.79 -10.82 -10.88 -10.94 -11.01 -11.06 -11.11 -11.14 -11.16 -11.18 -11.2 -11.23 -11.27 -11.33 -11.4 -11.46 -11.52 -11.55 -11.56 -11.57 -11.57 -11.56 -11.56 -11.56 -11.57 -11.59 -11.6 -11.6 -11.58 -11.56 -11.53 -11.49 -11.43 -11.36 -11.3 -11.24 -11.22 -11.23 -11.25 -11.26 -11.26 -11.26 -11.25 -11.25 -11.26 -11.27 -11.3 -11.33 -11.37 -11.39 -11.4 -11.4 -11.39 -11.38 -11.39 -11.39 -11.39 -11.36 -11.32 -11.29 -11.25 -11.2 -11.14 -11.1 -11.05 -11.02 -11 -11 -11 -11.01 -11.02 -11.03 -11.03 -11 -11.01 -11.07 -11.14 -11.22 -11.35 -11.58 -11.92 -12.46 -13.09 -14.22 -18.78 -26.03 -30.01 -30.09 -28.38 -27.55 -28.11 -29.6 -29.77 -29.54 -29.37 -27.89 -23.12 -17.65 -14.53 -14.05 -13.9 -13.72 -13.53 -13.33 -13.13 -12.95 -12.77 -12.58 -12.43 -12.35 -12.33 -12.33 -12.36 -12.41 -12.46 -12.52 -12.58 -12.63 -12.68 -12.72 -12.78 -12.83 -12.88 -12.93 -12.99 -13.09 -13.29 -13.6 -13.99 -14.42 -14.89 -15.32
-9.93 -9.9 -9.89 -9.89 -9.9 -9.9 -9.9 -9.88 -9.86 -9.85 -9.85 -9.86 -9.86 -9.85 -9.84 -9.82 -9.78 -9.75 -9.73 -9.71 -9.7 -9.68 -9.66 -9.65 -9.68 -9.74 -9.84 -9.95 -10.05 -10.14 -10.17 -10.16 -10.13 -10.07 -9.99 -9.87 -9.73 -9.59 -9.5 -9.45 -9.47 -9.51 -9.56 -9.59 -9.63 -9.65 -9.68 -9.72 -9.77 -9.82 -9.87 -9.92 -9.96 -10 -10.02 -10.02 -10 -10.01 -10.08 -10.15 -10.15 -10.13 -10.11 -10.1 -10.1 -10.11 -10.15 -10.17 -10.16 -10.11 -10.06 -10.02 -9.99 -9.97 -9.95 -9.94 -9.97 -10 -10 -9.95 -9.87 -9.79 -9.74 -9.68 -9.63 -9.59 -9.55 -9.51 -9.48 -9.48 -9.49 -9.52 -9.57 -9.63 -9.7 -9.76 -9.82 -9.86 -9.9 -9.93 -9.95 -9.97 -9.99 -10.01 -10.04 -10.06 -10.1 -10.13 -10.15 -10.16 -10.17 -10.19 -10.2 -10.21 -10.2 -10.19 -10.15 -10.11 -10.08 -10.09 -10.17 -10.27 -10.33 -10.34 -10.32 -10.28 -10.24 -10.21 -10.2 -10.17 -10.11 -10.04 -9.99 -9.96 -9.95 -9.94 -9.94 -9.93 -9.89 -9.83 -9.76 -9.69 -9.62 -9.57 -9.56 -9.58 -9.63 -9.69 -9.73 -9.75 -9.77 -9.78 -9.8 -9.82 -9.84 -9.87 -9.89 -9.9 -9.92 -9.95 -9.98 -10.03 -10.07 -10.11 -10.14 -10.18 -10.22 -10.27 -10.33 -10.39 -10.82 -13.63 -17.21 -18.97 -18.37 -17.01 -17.45 -19.96 -22.75 -24.86 -24.46 -20.93 -15.88 -12.32 -10.42 -10.36 -10.31 -10.28 -10.26 -10.26 -10.27 -10.29 -10.32 -10.73 -10.76 -10.79 -10.44 -10.48 -10.51 -10.55 -10.59 -10.62 -10.65 -10.66 -10.68 -10.69 -10.71 -10.72 -10.74 -10.77 -10.79 -10.79 -10.78 -10.77 -10.77 -10.8 -10.85 -10.9 -10.91 -10.91 -10.94 -10.97 -11.02 -11.46 -14.38 -19.13 -18.72 -14.35 -11.46 -11.05 -11.01 -10.97 -10.92 -10.86 -10.8 -10.75 -10.73 -10.72 -10.73 -10.74 -10.75 -10.73 -10.67 -10.58 -10.47 -10.37 -10.28 -10.2 -10.16 -10.14 -10.13 -10.13 -10.13 -10.13 -10.14 -10.16 -10.18 -10.19 -10.21 -10.22 -10.25 -10.28 -10.33 -10.38 -10.43 -10.48 -10.55 -10.61 -10.68 -10.73 -10.76 -10.79 -10.81 -10.83 -10.84 -10.86 -10.87 -10.89 -10.9 -10.9 -10.9 -10.92 -10.95 -10.98 -11.01 -11.04 -11.05 -11.05 -11.02 -10.99 -10.97 -10.95 -10.93 -10.92 -10.91 -10.91 -10.9 -10.9 -10.89 -10.89 -10.88 -10.88 -10.87 -10.86 -10.86 -10.86 -10.86 -10.86 -10.87 -10.86 -10.85 -10.85 -10.86 -10.88 -10.89 -10.89 -10.88 -10.86 -10.85 -10.83 -10.82 -10.81 -10.8 -10.79 -10.8 -10.81 -10.85 -10.91 -10.98 -11.03 -11.08 -11.12 -11.14 -11.16 -11.17 -11.19 -11.22 -11.27 -11.35 -11.43 -11.5 -11.56 -11.59 -11.6 -11.6 -11.59 -11.58 -11.58 -11.57 -11.58 -11.6 -11.61 -11.61 -11.6 -11.58 -11.55 -11.51 -11.45 -11.39 -11.32 -11.27 -11.25 -11.25 -11.27 -11.29 -11.29 -11.28 -11.26 -11.25 -11.25 -11.25 -11.27 -11.31 -11.35 -11.37 -11.38 -11.38 -11.38 -11.38 -11.39 -11.41 -11.41 -11.38 -11.34 -11.29 -11.24 -11.18 -11.12 -11.07 -11.03 -11.01 -11.01 -11.03 -11.06 -11.09 -11.13 -11.15 -11.14 -11.1 -11.09 -11.15 -11.24 -11.32 -11.42 -11.61 -11.95 -12.48 -13.21 -14.39 -18.83 -26.15 -30.06 -30.48 -29.38 -27.56 -27.03 -28.54 -29.75 -29.57 -29.44 -29.02 -25.94 -20.46 -15.93 -14.2 -14.05 -13.85 -13.62 -13.39 -13.18 -13.01 -12.85 -12.64 -12.48 -12.38 -12.35 -12.35 -12.38 -12.43 -12.5 -12.58 -12.66 -12.72 -12.76 -12.81 -12.87 -12.93 -12.97 -13 -13.05 -13.15 -13.35 -13.67 -14.05 -14.45 -14.87 -15.3
-9.96 -9.94 -9.93 -9.94 -9.95 -9.95 -9.93 -9.92 -9.89 -9.88 -9.87 -9.87 -9.87 -9.87 -9.85 -9.83 -9.8 -9.78 -9.76 -9.74 -9.73 -9.7 -9.67 -9.66 -9.69 -9.76 -9.85 -9.95 -10.06 -10.15 -10.18 -10.18 -10.15 -10.11 -10.03 -9.92 -9.78 -9.64 -9.55 -9.51 -9.53 -9.58 -9.62 -9.64 -9.66 -9.68 -9.69 -9.72 -9.77 -9.83 -9.88 -9.92 -9.97 -10 -10.03 -10.02 -10.01 -10.03 -10.11 -10.18 -10.17 -10.14 -10.12 -10.1 -10.09 -10.1 -10.13 -10.16 -10.16 -10.13 -10.08 -10.05 -10.03 -10.02 -10.01 -10.02 -10.07 -10.1 -10.09 -10.03 -9.94 -9.85 -9.78 -9.74 -9.7 -9.66 -9.61 -9.57 -9.53 -9.52 -9.52 -9.55 -9.59 -9.65 -9.71 -9.77 -9.83 -9.87 -9.9 -9.93 -9.96 -9.98 -10.01 -10.04 -10.06 -10.1 -10.13 -10.16 -10.17 -10.18 -10.19 -10.2 -10.21 -10.21 -10.2 -10.18 -10.14 -10.11 -10.08 -10.1 -10.19 -10.28 -10.34 -10.36 -10.34 -10.31 -10.27 -10.23 -10.21 -10.18 -10.12 -10.06 -10.01 -9.98 -9.97 -9.97 -9.97 -9.96 -9.92 -9.86 -9.79 -9.72 -9.65 -9.6 -9.59 -9.61 -9.66 -9.72 -9.76 -9.78 -9.79 -9.81 -9.82 -9.84 -9.86 -9.88 -9.89 -9.91 -9.92 -9.94 -9.97 -10.01 -10.06 -10.1 -10.14 -10.17 -10.22 -10.27 -10.33 -10.38 -10.81 -13.25 -16.14 -16.12 -14.16 -12.09 -12.13 -14.28 -17.07 -19.93 -19.93 -16.36 -12.81 -10.9 -10.82 -10.76 -10.72 -10.7 -10.69 -10.69 -10.71 -10.73 -11.8 -13.55 -14.63 -13.62 -11.92 -10.51 -10.54 -10.58 -10.62 -10.66 -10.68 -10.7 -10.72 -10.74 -10.76 -10.79 -10.82 -10.85 -10.88 -10.89 -10.88 -10.86 -10.85 -10.86 -10.91 -10.96 -10.99 -11 -11.03 -11.08 -11.16 -11.23 -12.37 -14.58 -14.54 -12.3 -11.18 -11.16 -11.11 -11.05 -10.99 -10.92 -10.86 -10.8 -10.77 -10.77 -10.79 -10.81 -10.81 -10.79 -10.72 -10.62 -10.49 -10.37 -10.26 -10.18 -10.14 -10.13 -10.14 -10.14 -10.14 -10.15 -10.16 -10.18 -10.2 -10.22 -10.23 -10.25 -10.27 -10.3 -10.35 -10.41 -10.45 -10.5 -10.56 -10.63 -10.69 -10.74 -10.77 -10.8 -10.83 -10.85 -10.87 -10.89 -10.91 -10.93 -10.94 -10.94 -10.94 -10.95 -10.97 -11.01 -11.05 -11.07 -11.08 -11.07 -11.04 -11.01 -10.98 -10.96 -10.94 -10.94 -10.93 -10.93 -10.94 -10.94 -10.94 -10.93 -10.92 -10.9 -10.88 -10.87 -10.86 -10.86 -10.87 -10.88 -10.89 -10.89 -10.89 -10.89 -10.9 -10.91 -10.92 -10.91 -10.9 -10.88 -10.86 -10.85 -10.84 -10.83 -10.82 -10.82 -10.82 -10.85 -10.89 -10.95 -11 -11.06 -11.09 -11.12 -11.15 -11.16 -11.17 -11.19 -11.22 -11.28 -11.36 -11.45 -11.53 -11.58 -11.61 -11.63 -11.62 -11.62 -11.61 -11.6 -11.59 -11.59 -11.6 -11.62 -11.61 -11.6 -11.58 -11.55 -11.51 -11.46 -11.4 -11.34 -11.3 -11.28 -11.28 -11.3 -11.31 -11.31 -11.29 -11.27 -11.25 -11.24 -11.24 -11.25 -11.29 -11.33 -11.36 -11.37 -11.38 -11.38 -11.38 -11.4 -11.43 -11.44 -11.41 -11.37 -11.31 -11.24 -11.16 -11.1 -11.05 -11.02 -11.02 -11.05 -11.09 -11.14 -11.19 -11.24 -11.28 -11.27 -11.21 -11.19 -11.24 -11.33 -11.41 -11.51 -11.68 -12 -12.56 -13.32 -14.53 -18.93 -25.97 -30.13 -30.49 -29.99 -27.12 -24.21 -25.15 -28.09 -29.6 -29.52 -29.51 -28.12 -24.05 -18.99 -15.39 -14.15 -13.9 -13.66 -13.44 -13.24 -13.09 -12.91 -12.69 -12.51 -12.42 -12.38 -12.39 -12.42 -12.47 -12.54 -12.63 -12.72 -12.78 -12.84 -12.89 -12.96 -13.02 -13.05 -13.06 -13.1 -13.21 -13.42 -13.74 -14.11 -14.51 -14.89 -15.27
-9.99 -9.97 -9.97 -9.97 -9.98 -9.98 -9.96 -9.95 -9.93 -9.91 -9.89 -9.88 -9.88 -9.87 -9.86 -9.85 -9.82 -9.8 -9.78 -9.76 -9.74 -9.72 -9.69 -9.69 -9.72 -9.79 -9.87 -9.97 -10.08 -10.17 -10.21 -10.21 -10.19 -10.15 -10.08 -9.97 -9.84 -9.71 -9.62 -9.58 -9.6 -9.64 -9.66 -9.68 -9.7 -9.7 -9.71 -9.74 -9.79 -9.85 -9.9 -9.94 -9.98 -10.01 -10.04 -10.04 -10.04 -10.07 -10.15 -10.22 -10.2 -10.16 -10.12 -10.1 -10.08 -10.09 -10.12 -10.16 -10.16 -10.14 -10.11 -10.08 -10.07 -10.07 -10.07 -10.1 -10.15 -10.18 -10.16 -10.1 -10 -9.91 -9.85 -9.81 -9.77 -9.73 -9.68 -9.63 -9.59 -9.56 -9.55 -9.57 -9.61 -9.66 -9.72 -9.78 -9.84 -9.88 -9.91 -9.94 -9.97 -10 -10.03 -10.06 -10.09 -10.12 -10.16 -10.18 -10.19 -10.2 -10.21 -10.21 -10.21 -10.21 -10.19 -10.17 -10.14 -10.11 -10.09 -10.11 -10.19 -10.29 -10.35 -10.37 -10.36 -10.33 -10.3 -10.27 -10.24 -10.19 -10.12 -10.05 -10.01 -9.99 -9.98 -9.99 -10 -9.99 -9.96 -9.9 -9.83 -9.75 -9.68 -9.63 -9.62 -9.64 -9.69 -9.74 -9.78 -9.81 -9.82 -9.83 -9.85 -9.86 -9.87 -9.89 -9.9 -9.91 -9.92 -9.94 -9.96 -9.99 -10.04 -10.08 -10.12 -10.16 -10.2 -10.26 -10.33 -10.38 -10.42 -11.51 -12.62 -12 -11 -10.66 -11.08 -11.48 -13.6 -17.09 -18.15 -16.38 -14.86 -14.77 -14.68 -14.62 -14.57 -14.54 -14.53 -14.53 -14.54 -14.95 -16.7 -19.57 -20.96 -19.67 -15.81 -12.38 -10.58 -10.62 -10.67 -10.7 -10.73 -10.75 -10.77 -10.79 -10.82 -10.85 -10.89 -10.92 -10.95 -10.97 -10.96 -10.95 -10.94 -10.96 -11.01 -11.06 -11.09 -11.1 -11.12 -11.18 -11.27 -11.37 -11.42 -11.82 -11.77 -11.33 -11.32 -11.31 -11.27 -11.19 -11.11 -11.02 -10.94 -10.88 -10.84 -10.83 -10.84 -10.85 -10.86 -10.83 -10.75 -10.64 -10.51 -10.37 -10.24 -10.16 -10.13 -10.13 -10.14 -10.15 -10.16 -10.16 -10.18 -10.2 -10.22 -10.24 -10.26 -10.27 -10.29 -10.32 -10.37 -10.42 -10.47 -10.52 -10.58 -10.64 -10.7 -10.75 -10.79 -10.81 -10.84 -10.87 -10.9 -10.92 -10.94 -10.96 -10.97 -10.97 -10.97 -10.98 -11 -11.04 -11.08 -11.1 -11.11 -11.1 -11.06 -11.02 -10.98 -10.96 -10.95 -10.95 -10.95 -10.96 -10.97 -10.97 -10.97 -10.97 -10.95 -10.92 -10.89 -10.88 -10.87 -10.87 -10.87 -10.88 -10.9 -10.91 -10.91 -10.91 -10.92 -10.94 -10.94 -10.94 -10.92 -10.9 -10.89 -10.87 -10.87 -10.86 -10.85 -10.84 -10.85 -10.88 -10.92 -10.97 -11.02 -11.07 -11.1 -11.13 -11.15 -11.16 -11.17 -11.2 -11.24 -11.31 -11.4 -11.48 -11.55 -11.6 -11.62 -11.63 -11.64 -11.63 -11.63 -11.63 -11.62 -11.62 -11.62 -11.63 -11.62 -11.6 -11.58 -11.56 -11.52 -11.47 -11.42 -11.36 -11.32 -11.3 -11.31 -11.32 -11.32 -11.32 -11.3 -11.27 -11.25 -11.23 -11.23 -11.25 -11.28 -11.32 -11.35 -11.37 -11.38 -11.38 -11.4 -11.42 -11.45 -11.46 -11.44 -11.39 -11.33 -11.25 -11.16 -11.08 -11.03 -11.01 -11.04 -11.09 -11.15 -11.22 -11.29 -11.34 -11.39 -11.39 -11.35 -11.32 -11.35 -11.43 -11.5 -11.58 -11.76 -12.1 -12.63 -13.36 -14.57 -18.32 -24.92 -29.48 -30.49 -29.95 -26.07 -20.83 -20.67 -25.17 -28.56 -29.57 -29.61 -29.53 -27.34 -22.56 -17.32 -14.46 -13.95 -13.71 -13.5 -13.3 -13.13 -12.94 -12.72 -12.54 -12.45 -12.43 -12.45 -12.52 -12.57 -12.62 -12.7 -12.79 -12.87 -12.93 -12.99 -13.04 -13.09 -13.12 -13.14 -13.2 -13.35 -13.57 -13.87 -14.23 -14.6 -14.96 -15.28
-10.03 -10 -10 -10 -10 -10 -9.99 -9.98 -9.96 -9.94 -9.91 -9.89 -9.88 -9.88 -9.87 -9.86 -9.84 -9.82 -9.8 -9.78 -9.76 -9.73 -9.71 -9.72 -9.77 -9.83 -9.91 -10 -10.1 -10.2 -10.24 -10.25 -10.24 -10.2 -10.13 -10.03 -9.91 -9.8 -9.72 -9.67 -9.67 -9.69 -9.71 -9.72 -9.73 -9.73 -9.75 -9.78 -9.83 -9.88 -9.93 -9.97 -10.01 -10.04 -10.06 -10.08 -10.09 -10.13 -10.2 -10.26 -10.23 -10.18 -10.13 -10.1 -10.08 -10.08 -10.12 -10.16 -10.18 -10.17 -10.14 -10.12 -10.11 -10.12 -10.14 -10.16 -10.21 -10.23 -10.21 -10.15 -10.07 -9.99 -9.93 -9.88 -9.84 -9.8 -9.74 -9.69 -9.64 -9.61 -9.59 -9.6 -9.63 -9.68 -9.73 -9.79 -9.85 -9.89 -9.92 -9.95 -9.99 -10.02 -10.06 -10.09 -10.12 -10.15 -10.18 -10.2 -10.21 -10.22 -10.22 -10.22 -10.22 -10.21 -10.19 -10.17 -10.15 -10.12 -10.11 -10.13 -10.21 -10.3 -10.36 -10.38 -10.38 -10.36 -10.34 -10.31 -10.28 -10.22 -10.12 -10.05 -10.01 -10 -9.99 -10.01 -10.03 -10.03 -10.01 -9.95 -9.88 -9.8 -9.72 -9.67 -9.65 -9.66 -9.71 -9.76 -9.81 -9.84 -9.86 -9.87 -9.88 -9.89 -9.9 -9.91 -9.92 -9.93 -9.93 -9.94 -9.95 -9.97 -10.01 -10.05 -10.09 -10.14 -10.19 -10.26 -10.32 -10.37 -10.41 -10.45 -10.89 -10.56 -10.62 -11.73 -13.52 -15.39 -17.14 -20.41 -22.16 -22.13 -22.05 -21.95 -21.85 -21.77 -21.71 -21.65 -21.62 -21.61 -21.62 -21.65 -22.72 -24.48 -25.59 -24.23 -20.83 -15.91 -12.48 -10.69 -10.74 -10.77 -10.8 -10.81 -10.83 -10.86 -10.89 -10.92 -10.95 -10.98 -11.41 -11.44 -11.05 -11.05 -11.07 -11.11 -11.17 -11.22 -11.24 -11.25 -11.27 -11.32 -11.41 -11.5 -11.54 -11.54 -11.5 -11.48 -11.48 -11.48 -11.45 -11.38 -11.27 -11.16 -11.07 -10.99 -10.93 -10.9 -10.89 -10.89 -10.89 -10.86 -10.77 -10.65 -10.5 -10.36 -10.23 -10.14 -10.12 -10.13 -10.15 -10.16 -10.17 -10.18 -10.2 -10.22 -10.23 -10.25 -10.28 -10.29 -10.31 -10.33 -10.38 -10.44 -10.5 -10.55 -10.6 -10.66 -10.72 -10.77 -10.8 -10.83 -10.86 -10.89 -10.91 -10.94 -10.96 -10.98 -10.99 -11 -11 -11.02 -11.04 -11.07 -11.11 -11.13 -11.14 -11.12 -11.07 -11.02 -10.98 -10.95 -10.94 -10.95 -10.96 -10.97 -10.99 -11 -11 -10.99 -10.96 -10.93 -10.91 -10.88 -10.87 -10.87 -10.88 -10.89 -10.91 -10.92 -10.92 -10.93 -10.94 -10.95 -10.96 -10.96 -10.95 -10.93 -10.92 -10.91 -10.9 -10.89 -10.88 -10.88 -10.88 -10.91 -10.94 -10.99 -11.03 -11.07 -11.11 -11.13 -11.15 -11.16 -11.18 -11.21 -11.27 -11.35 -11.44 -11.52 -11.58 -11.61 -11.63 -11.64 -11.65 -11.65 -11.66 -11.66 -11.66 -11.66 -11.66 -11.65 -11.63 -11.61 -11.58 -11.55 -11.52 -11.48 -11.44 -11.39 -11.36 -11.33 -11.33 -11.34 -11.34 -11.33 -11.3 -11.28 -11.25 -11.24 -11.23 -11.25 -11.28 -11.32 -11.35 -11.38 -11.39 -11.4 -11.41 -11.43 -11.46 -11.48 -11.47 -11.42 -11.35 -11.26 -11.17 -11.07 -11.01 -11.01 -11.06 -11.13 -11.21 -11.3 -11.37 -11.44 -11.49 -11.51 -11.48 -11.46 -11.49 -11.53 -11.59 -11.67 -11.85 -12.19 -12.72 -13.42 -14.36 -17.25 -23.13 -28.39 -30.23 -29.94 -26.07 -19.44 -17.54 -21.75 -26.73 -29.34 -29.66 -29.75 -29.07 -25.72 -20.32 -15.93 -14.04 -13.79 -13.56 -13.35 -13.17 -12.98 -12.78 -12.61 -12.54 -12.53 -12.61 -12.69 -12.74 -12.77 -12.84 -12.93 -13.02 -13.09 -13.13 -13.16 -13.2 -13.23 -13.27 -13.35 -13.55 -13.79 -14.06 -14.38 -14.73 -15.06 -15.35
-10.08 -10.05 -10.04 -10.03 -10.03 -10.03 -10.02 -10.01 -9.99 -9.96 -9.93 -9.91 -9.89 -9.88 -9.88 -9.87 -9.86 -9.84 -9.82 -9.8 -9.78 -9.76 -9.75 -9.76 -9.82 -9.89 -9.95 -10.03 -10.14 -10.23 -10.29 -10.31 -10.31 -10.27 -10.2 -10.11 -10 -9.9 -9.83 -9.78 -9.76 -9.76 -9.75 -9.75 -9.76 -9.77 -9.8 -9.84 -9.89 -9.94 -9.99 -10.03 -10.07 -10.09 -10.11 -10.12 -10.13 -10.17 -10.24 -10.28 -10.25 -10.2 -10.15 -10.12 -10.1 -10.1 -10.14 -10.19 -10.21 -10.21 -10.17 -10.15 -10.15 -10.17 -10.19 -10.23 -10.26 -10.28 -10.27 -10.22 -10.14 -10.06 -9.99 -9.94 -9.9 -9.86 -9.8 -9.75 -9.71 -9.67 -9.64 -9.64 -9.66 -9.7 -9.75 -9.81 -9.86 -9.91 -9.94 -9.97 -10.01 -10.05 -10.09 -10.13 -10.16 -10.18 -10.2 -10.22 -10.23 -10.23 -10.24 -10.23 -10.23 -10.21 -10.19 -10.17 -10.16 -10.14 -10.13 -10.16 -10.24 -10.32 -10.37 -10.39 -10.39 -10.38 -10.37 -10.35 -10.31 -10.24 -10.14 -10.05 -10.01 -10.01 -10.02 -10.03 -10.06 -10.08 -10.06 -10.02 -9.94 -9.85 -9.77 -9.72 -9.69 -9.7 -9.73 -9.78 -9.84 -9.88 -9.9 -9.91 -9.92 -9.93 -9.94 -9.94 -9.94 -9.94 -9.94 -9.94 -9.94 -9.96 -9.98 -10.02 -10.06 -10.12 -10.19 -10.25 -10.31 -10.36 -10.4 -10.45 -10.5 -10.56 -11.01 -12.82 -16.82 -20.36 -22.89 -25.04 -26.1 -26.07 -26 -25.91 -25.83 -25.75 -25.67 -25.6 -25.54 -25.52 -25.53 -25.55 -25.58 -26 -26.07 -26.15 -24.39 -20.99 -16.07 -12.63 -11.23 -11.28 -10.9 -10.91 -10.93 -10.97 -11.4 -11.43 -11.45 -12.58 -14.42 -14.46 -12.67 -11.19 -11.25 -11.32 -11.38 -11.44 -11.46 -11.48 -11.51 -11.56 -11.63 -11.68 -11.71 -11.72 -11.7 -11.68 -11.67 -11.66 -11.64 -11.58 -11.45 -11.31 -11.21 -11.12 -11.05 -11 -10.96 -10.94 -10.93 -10.89 -10.78 -10.65 -10.5 -10.35 -10.23 -10.15 -10.13 -10.15 -10.16 -10.17 -10.18 -10.19 -10.2 -10.22 -10.24 -10.26 -10.28 -10.3 -10.32 -10.35 -10.4 -10.46 -10.52 -10.57 -10.63 -10.68 -10.73 -10.78 -10.81 -10.84 -10.87 -10.9 -10.92 -10.94 -10.97 -11 -11.02 -11.03 -11.03 -11.05 -11.07 -11.11 -11.14 -11.16 -11.16 -11.14 -11.09 -11.03 -10.98 -10.95 -10.94 -10.95 -10.97 -10.99 -11 -11.01 -11.01 -11 -10.98 -10.95 -10.92 -10.9 -10.88 -10.88 -10.89 -10.91 -10.93 -10.95 -10.95 -10.95 -10.97 -10.98 -10.99 -10.98 -10.98 -10.97 -10.95 -10.94 -10.94 -10.93 -10.93 -10.93 -10.93 -10.95 -10.98 -11.02 -11.06 -11.09 -11.12 -11.14 -11.15 -11.17 -11.19 -11.23 -11.29 -11.38 -11.49 -11.57 -11.62 -11.64 -11.64 -11.65 -11.66 -11.68 -11.68 -11.69 -11.69 -11.69 -11.69 -11.67 -11.64 -11.61 -11.58 -11.55 -11.53 -11.5 -11.47 -11.44 -11.41 -11.38 -11.37 -11.36 -11.36 -11.34 -11.32 -11.29 -11.27 -11.25 -11.24 -11.25 -11.28 -11.31 -11.35 -11.38 -11.4 -11.42 -11.43 -11.46 -11.49 -11.51 -11.51 -11.46 -11.38 -11.28 -11.17 -11.07 -11.01 -11.01 -11.08 -11.18 -11.27 -11.37 -11.47 -11.55 -11.61 -11.63 -11.63 -11.63 -11.65 -11.67 -11.69 -11.76 -11.94 -12.29 -12.84 -13.53 -14.44 -16.64 -21.97 -27.77 -30.29 -30 -26.8 -20.47 -16.63 -18.71 -23.83 -27.82 -29.65 -29.76 -29.82 -28.26 -24.17 -18.96 -15.23 -13.91 -13.65 -13.43 -13.26 -13.1 -12.93 -12.78 -12.72 -12.77 -12.86 -12.96 -12.98 -13.02 -13.09 -13.2 -13.3 -13.36 -13.39 -13.39 -13.41 -13.44 -13.48 -13.57 -13.77 -14.04 -14.31 -14.59 -14.89 -15.19 -15.44
-10.15 -10.12 -10.09 -10.08 -10.07 -10.07 -10.06 -10.04 -10.02 -9.98 -9.95 -9.91 -9.89 -9.89 -9.88 -9.88 -9.87 -9.86 -9.85 -9.83 -9.82 -9.8 -9.8 -9.81 -9.87 -9.94 -10 -10.08 -10.18 -10.27 -10.34 -10.38 -10.37 -10.34 -10.29 -10.21 -10.11 -10.01 -9.95 -9.9 -9.87 -9.84 -9.81 -9.79 -9.79 -9.81 -9.85 -9.91 -9.97 -10.02 -10.07 -10.1 -10.14 -10.16 -10.18 -10.19 -10.19 -10.21 -10.27 -10.3 -10.27 -10.22 -10.19 -10.16 -10.14 -10.15 -10.18 -10.23 -10.25 -10.25 -10.22 -10.19 -10.19 -10.21 -10.24 -10.28 -10.32 -10.34 -10.32 -10.27 -10.2 -10.12 -10.05 -9.99 -9.95 -9.91 -9.86 -9.81 -9.77 -9.73 -9.71 -9.7 -9.72 -9.75 -9.79 -9.83 -9.88 -9.93 -9.96 -10 -10.04 -10.09 -10.13 -10.17 -10.2 -10.22 -10.23 -10.24 -10.25 -10.25 -10.25 -10.24 -10.24 -10.22 -10.2 -10.19 -10.18 -10.17 -10.17 -10.2 -10.26 -10.34 -10.37 -10.39 -10.4 -10.4 -10.39 -10.38 -10.33 -10.26 -10.15 -10.05 -10.02 -10.02 -10.04 -10.07 -10.1 -10.13 -10.12 -10.07 -10 -9.92 -9.85 -9.79 -9.75 -9.74 -9.76 -9.81 -9.87 -9.92 -9.94 -9.95 -9.96 -9.97 -9.97 -9.97 -9.96 -9.96 -9.95 -9.94 -9.94 -9.95 -9.96 -10 -10.05 -10.12 -10.19 -10.26 -10.31 -10.36 -10.4 -10.44 -10.5 -10.57 -10.63 -12.14 -15.69 -19.69 -22.54 -25.1 -26.18 -26.16 -26.51 -26.46 -26.41 -26.34 -26.26 -26.18 -26.12 -26.1 -26.08 -26.09 -26.11 -26.15 -26.22 -26.29 -26.36 -24.62 -21.23 -17.38 -15.71 -14.28 -12.51 -11.45 -11.47 -12.6 -14.44 -15.57 -16.01 -17.86 -20.5 -20.55 -16.9 -13.31 -11.46 -11.55 -11.62 -11.68 -11.73 -11.77 -11.82 -11.99 -12.02 -12.04 -12.07 -12.08 -12.07 -11.91 -11.88 -11.86 -11.83 -11.76 -11.62 -11.47 -11.35 -11.27 -11.18 -11.11 -11.05 -11 -10.98 -10.93 -10.81 -10.66 -10.51 -10.36 -10.24 -10.17 -10.16 -10.17 -10.18 -10.19 -10.19 -10.2 -10.21 -10.22 -10.23 -10.25 -10.28 -10.3 -10.32 -10.36 -10.42 -10.48 -10.54 -10.6 -10.66 -10.71 -10.75 -10.79 -10.82 -10.85 -10.88 -10.91 -10.93 -10.95 -10.98 -11.01 -11.04 -11.05 -11.06 -11.08 -11.11 -11.14 -11.17 -11.19 -11.19 -11.16 -11.1 -11.03 -10.98 -10.94 -10.94 -10.95 -10.97 -10.99 -11.01 -11.02 -11.02 -11.02 -11 -10.97 -10.94 -10.92 -10.91 -10.91 -10.92 -10.94 -10.97 -10.98 -10.99 -10.99 -11 -11.01 -11.02 -11.01 -11.01 -11 -10.99 -10.98 -10.98 -10.99 -10.99 -10.99 -11 -11.01 -11.03 -11.06 -11.1 -11.13 -11.15 -11.16 -11.18 -11.19 -11.21 -11.25 -11.32 -11.42 -11.52 -11.61 -11.65 -11.65 -11.66 -11.67 -11.68 -11.69 -11.7 -11.7 -11.7 -11.7 -11.7 -11.68 -11.64 -11.61 -11.58 -11.55 -11.54 -11.52 -11.51 -11.49 -11.46 -11.43 -11.41 -11.39 -11.38 -11.36 -11.34 -11.31 -11.28 -11.26 -11.25 -11.25 -11.27 -11.31 -11.34 -11.38 -11.41 -11.44 -11.46 -11.49 -11.52 -11.55 -11.55 -11.5 -11.42 -11.31 -11.19 -11.08 -11.02 -11.03 -11.12 -11.24 -11.35 -11.47 -11.59 -11.69 -11.75 -11.78 -11.8 -11.81 -11.82 -11.81 -11.81 -11.86 -12.02 -12.37 -12.96 -13.69 -14.57 -16.39 -21.25 -27.55 -30.41 -30.36 -28.01 -22.37 -17.09 -16.53 -19.74 -24.47 -27.85 -29.72 -29.8 -29.68 -27.39 -22.49 -17.19 -14.67 -13.79 -13.57 -13.42 -13.29 -13.15 -13.04 -13.01 -13.07 -13.18 -13.26 -13.3 -13.36 -13.46 -13.56 -13.64 -13.7 -13.72 -13.71 -13.72 -13.74 -13.76 -13.84 -14.04 -14.3 -14.57 -14.82 -15.07 -15.32 -15.55
-10.21 -10.18 -10.15 -10.13 -10.12 -10.12 -10.1 -10.09 -10.06 -10.01 -9.97 -9.93 -9.91 -9.9 -9.9 -9.89 -9.89 -9.88 -9.88 -9.87 -9.86 -9.85 -9.85 -9.87 -9.91 -9.98 -10.05 -10.13 -10.23 -10.32 -10.4 -10.44 -10.45 -10.43 -10.38 -10.31 -10.22 -10.14 -10.09 -10.05 -9.99 -9.94 -9.88 -9.84 -9.84 -9.86 -9.91 -9.98 -10.05 -10.11 -10.15 -10.18 -10.21 -10.24 -10.26 -10.27 -10.26 -10.27 -10.3 -10.32 -10.3 -10.26 -10.24 -10.22 -10.21 -10.21 -10.24 -10.27 -10.3 -10.31 -10.28 -10.24 -10.24 -10.27 -10.3 -10.34 -10.37 -10.38 -10.36 -10.32 -10.26 -10.18 -10.11 -10.04 -9.99 -9.95 -9.91 -9.86 -9.83 -9.8 -9.78 -9.78 -9.79 -9.81 -9.84 -9.87 -9.91 -9.95 -9.98 -10.02 -10.07 -10.12 -10.17 -10.21 -10.24 -10.26 -10.27 -10.27 -10.28 -10.27 -10.27 -10.26 -10.25 -10.24 -10.23 -10.22 -10.22 -10.21 -10.21 -10.23 -10.29 -10.34 -10.37 -10.37 -10.38 -10.39 -10.39 -10.38 -10.33 -10.25 -10.14 -10.05 -10.02 -10.03 -10.05 -10.09 -10.14 -10.17 -10.16 -10.12 -10.06 -10 -9.94 -9.88 -9.83 -9.81 -9.82 -9.85 -9.91 -9.96 -9.98 -9.99 -9.99 -10 -9.99 -9.99 -9.98 -9.97 -9.96 -9.95 -9.95 -9.96 -9.98 -10 -10.05 -10.12 -10.2 -10.27 -10.32 -10.36 -10.4 -10.45 -10.51 -10.58 -10.64 -10.69 -12.19 -14.37 -17.23 -20.16 -21.94 -23.41 -25.18 -26.24 -26.6 -26.55 -26.49 -26.42 -26.38 -26.34 -26.31 -26.3 -26.31 -26.36 -26.42 -26.48 -26.55 -26.66 -25.34 -23.72 -22.38 -20.69 -17.79 -16.03 -16.07 -17.9 -20.92 -22.78 -23.25 -24.42 -26.31 -25.97 -22.42 -17.27 -13.66 -11.78 -11.86 -11.94 -12.02 -12.22 -12.61 -13.44 -13.79 -13.8 -13.81 -13.81 -13.44 -12.84 -12.46 -12.43 -12.39 -12.3 -12.16 -12.01 -11.51 -11.41 -11.31 -11.22 -11.14 -11.08 -11.04 -10.97 -10.85 -10.7 -10.53 -10.38 -10.26 -10.2 -10.19 -10.21 -10.22 -10.22 -10.21 -10.2 -10.2 -10.21 -10.22 -10.24 -10.26 -10.29 -10.32 -10.38 -10.44 -10.51 -10.58 -10.63 -10.68 -10.73 -10.76 -10.8 -10.83 -10.86 -10.89 -10.91 -10.93 -10.96 -10.99 -11.03 -11.06 -11.08 -11.09 -11.11 -11.13 -11.16 -11.19 -11.2 -11.2 -11.18 -11.12 -11.05 -10.98 -10.94 -10.93 -10.94 -10.97 -10.99 -11 -11.01 -11.02 -11.02 -11.01 -10.99 -10.97 -10.95 -10.95 -10.95 -10.97 -10.99 -11.01 -11.03 -11.03 -11.03 -11.03 -11.04 -11.04 -11.04 -11.04 -11.04 -11.04 -11.04 -11.04 -11.05 -11.06 -11.06 -11.07 -11.08 -11.1 -11.13 -11.16 -11.19 -11.2 -11.21 -11.23 -11.24 -11.26 -11.3 -11.37 -11.45 -11.54 -11.62 -11.65 -11.65 -11.66 -11.67 -11.68 -11.69 -11.7 -11.7 -11.7 -11.69 -11.68 -11.66 -11.63 -11.6 -11.58 -11.56 -11.55 -11.55 -11.55 -11.54 -11.52 -11.48 -11.45 -11.43 -11.4 -11.37 -11.35 -11.32 -11.29 -11.27 -11.26 -11.26 -11.27 -11.3 -11.35 -11.4 -11.44 -11.47 -11.49 -11.52 -11.56 -11.58 -11.59 -11.55 -11.47 -11.36 -11.24 -11.14 -11.08 -11.1 -11.2 -11.33 -11.47 -11.6 -11.73 -11.83 -11.91 -11.95 -11.99 -12.01 -12 -11.96 -11.93 -11.97 -12.13 -12.48 -13.09 -13.82 -14.56 -15.91 -20.42 -27.1 -30.39 -30.47 -28.79 -23.72 -17.85 -15.08 -16.42 -19.66 -24.46 -27.9 -29.79 -29.84 -29.08 -25.66 -21.24 -17.63 -15.34 -13.88 -13.6 -13.48 -13.39 -13.32 -13.31 -13.36 -13.46 -13.56 -13.64 -13.74 -13.85 -13.94 -14.01 -14.06 -14.08 -14.07 -14.07 -14.07 -14.08 -14.16 -14.33 -14.55 -14.8 -15.04 -15.27 -15.49 -15.68
-10.27 -10.24 -10.22 -10.2 -10.18 -10.17 -10.15 -10.14 -10.1 -10.05 -10 -9.96 -9.94 -9.92 -9.92 -9.92 -9.91 -9.91 -9.91 -9.9 -9.9 -9.9 -9.91 -9.93 -9.96 -10.02 -10.09 -10.17 -10.27 -10.37 -10.46 -10.51 -10.53 -10.52 -10.47 -10.4 -10.33 -10.27 -10.23 -10.19 -10.12 -10.05 -9.97 -9.92 -9.91 -9.93 -9.99 -10.06 -10.13 -10.2 -10.24 -10.27 -10.3 -10.32 -10.35 -10.36 -10.35 -10.35 -10.36 -10.37 -10.35 -10.32 -10.3 -10.29 -10.29 -10.29 -10.31 -10.33 -10.36 -10.36 -10.34 -10.31 -10.3 -10.33 -10.37 -10.4 -10.42 -10.42 -10.4 -10.36 -10.3 -10.23 -10.16 -10.09 -10.03 -9.99 -9.94 -9.91 -9.89 -9.87 -9.86 -9.86 -9.86 -9.87 -9.89 -9.92 -9.96 -9.99 -10.02 -10.06 -10.11 -10.17 -10.21 -10.25 -10.28 -10.3 -10.31 -10.31 -10.3 -10.29 -10.29 -10.28 -10.28 -10.27 -10.27 -10.27 -10.27 -10.27 -10.26 -10.27 -10.31 -10.34 -10.35 -10.34 -10.35 -10.36 -10.38 -10.37 -10.32 -10.24 -10.13 -10.04 -10.01 -10.03 -10.06 -10.11 -10.17 -10.2 -10.19 -10.16 -10.13 -10.09 -10.04 -9.98 -9.92 -9.89 -9.89 -9.92 -9.96 -10 -10.02 -10.02 -10.02 -10.02 -10.01 -10 -10 -9.99 -9.97 -9.97 -9.98 -10 -10.02 -10.05 -10.09 -10.15 -10.21 -10.28 -10.33 -10.37 -10.41 -10.46 -10.52 -10.59 -10.66 -10.7 -10.75 -11.17 -12.27 -14.06 -15.55 -17.35 -20.29 -23.15 -25.32 -26.77 -26.73 -26.69 -26.66 -26.62 -26.59 -26.59 -26.6 -26.62 -26.65 -26.7 -26.77 -26.89 -27.04 -26.8 -26.95 -26.01 -24.32 -23.3 -23.34 -24.45 -26.31 -27.49 -27.58 -27.65 -28.14 -28.25 -26.47 -22.94 -17.72 -14.03 -12.55 -12.34 -13.03 -13.8 -15.41 -17.45 -18.68 -18.8 -18.8 -18.65 -18.04 -17.08 -16.49 -16.33 -16.27 -16.17 -16.03 -14.88 -13.06 -11.55 -11.43 -11.32 -11.23 -11.16 -11.1 -11.02 -10.89 -10.73 -10.57 -10.42 -10.31 -10.25 -10.24 -10.26 -10.26 -10.25 -10.23 -10.22 -10.21 -10.21 -10.22 -10.23 -10.25 -10.28 -10.32 -10.38 -10.46 -10.54 -10.61 -10.66 -10.7 -10.74 -10.77 -10.8 -10.84 -10.87 -10.9 -10.92 -10.94 -10.97 -11.01 -11.05 -11.09 -11.11 -11.12 -11.13 -11.14 -11.17 -11.19 -11.2 -11.2 -11.18 -11.13 -11.06 -10.99 -10.95 -10.93 -10.94 -10.96 -10.98 -10.99 -11 -11.02 -11.02 -11.01 -11 -10.99 -10.99 -11 -11.01 -11.03 -11.05 -11.07 -11.07 -11.07 -11.07 -11.06 -11.06 -11.06 -11.07 -11.08 -11.08 -11.09 -11.1 -11.11 -11.13 -11.14 -11.14 -11.14 -11.16 -11.18 -11.21 -11.24 -11.26 -11.28 -11.29 -11.3 -11.31 -11.32 -11.36 -11.42 -11.48 -11.55 -11.6 -11.63 -11.63 -11.64 -11.65 -11.66 -11.67 -11.67 -11.67 -11.67 -11.66 -11.64 -11.62 -11.6 -11.59 -11.58 -11.58 -11.58 -11.59 -11.6 -11.59 -11.57 -11.53 -11.5 -11.46 -11.41 -11.38 -11.35 -11.32 -11.29 -11.27 -11.26 -11.26 -11.27 -11.31 -11.36 -11.42 -11.47 -11.51 -11.54 -11.57 -11.6 -11.62 -11.62 -11.59 -11.52 -11.42 -11.32 -11.24 -11.2 -11.21 -11.31 -11.46 -11.61 -11.75 -11.87 -11.98 -12.06 -12.12 -12.16 -12.17 -12.16 -12.11 -12.06 -12.1 -12.26 -12.59 -13.13 -13.83 -14.56 -15.59 -19.88 -26.56 -30.44 -30.5 -29.17 -24.57 -18.23 -15.07 -14.63 -16.26 -19.58 -24.47 -27.97 -29.48 -29.84 -28.6 -26.12 -23.21 -19.56 -16.24 -14.48 -13.78 -13.59 -13.56 -13.56 -13.6 -13.7 -13.83 -13.97 -14.11 -14.21 -14.29 -14.36 -14.44 -14.47 -14.46 -14.43 -14.42 -14.44 -14.52 -14.65 -14.82 -15.04 -15.27 -15.49 -15.67 -15.82
-10.33 -10.31 -10.29 -10.26 -10.24 -10.23 -10.21 -10.2 -10.16 -10.11 -10.06 -10.02 -9.98 -9.96 -9.95 -9.95 -9.95 -9.94 -9.94 -9.94 -9.94 -9.96 -9.97 -9.99 -10.01 -10.06 -10.12 -10.2 -10.31 -10.42 -10.51 -10.59 -10.62 -10.61 -10.57 -10.51 -10.44 -10.4 -10.36 -10.32 -10.25 -10.17 -10.1 -10.05 -10.02 -10.03 -10.08 -10.15 -10.22 -10.28 -10.31 -10.35 -10.39 -10.42 -10.45 -10.46 -10.45 -10.44 -10.43 -10.42 -10.41 -10.39 -10.39 -10.39 -10.39 -10.39 -10.39 -10.4 -10.41 -10.41 -10.38 -10.36 -10.36 -10.38 -10.42 -10.44 -10.46 -10.46 -10.44 -10.39 -10.34 -10.28 -10.21 -10.15 -10.09 -10.04 -10 -9.97 -9.96 -9.95 -9.94 -9.94 -9.93 -9.94 -9.96 -9.98 -10 -10.03 -10.06 -10.1 -10.15 -10.2 -10.25 -10.29 -10.32 -10.34 -10.35 -10.34 -10.33 -10.32 -10.31 -10.31 -10.31 -10.31 -10.32 -10.33 -10.33 -10.32 -10.31 -10.31 -10.33 -10.34 -10.32 -10.31 -10.31 -10.33 -10.37 -10.37 -10.31 -10.22 -10.11 -10.03 -10.01 -10.03 -10.08 -10.14 -10.2 -10.23 -10.22 -10.2 -10.2 -10.19 -10.14 -10.07 -10.02 -9.99 -9.98 -9.99 -10.02 -10.04 -10.05 -10.05 -10.04 -10.04 -10.03 -10.02 -10.01 -10 -9.99 -9.99 -10.02 -10.05 -10.08 -10.1 -10.14 -10.19 -10.24 -10.29 -10.34 -10.38 -10.43 -10.48 -10.54 -10.61 -10.67 -10.72 -10.77 -10.81 -10.84 -11.27 -11.32 -12.43 -14.63 -17.5 -21.53 -25.1 -26.99 -27 -26.98 -26.96 -26.95 -26.96 -26.96 -26.94 -26.93 -26.96 -27.04 -27.16 -27.3 -27.44 -27.61 -27.79 -27.54 -27.62 -27.66 -27.68 -28.15 -28.26 -28.36 -28.44 -28.54 -28.67 -28.86 -27.11 -23.51 -19.62 -17.24 -16.34 -16.68 -18.59 -20.62 -23.14 -24.57 -24.78 -24.75 -24.71 -24.33 -23.75 -23.39 -23.35 -23.28 -23.18 -22.69 -20.87 -16.95 -13.46 -11.94 -11.44 -11.33 -11.24 -11.16 -11.07 -10.94 -10.79 -10.63 -10.5 -10.4 -10.34 -10.33 -10.33 -10.32 -10.3 -10.28 -10.25 -10.23 -10.22 -10.22 -10.23 -10.25 -10.28 -10.32 -10.39 -10.47 -10.55 -10.62 -10.68 -10.71 -10.74 -10.77 -10.81 -10.84 -10.88 -10.91 -10.94 -10.96 -10.99 -11.02 -11.07 -11.1 -11.13 -11.13 -11.13 -11.14 -11.16 -11.17 -11.18 -11.18 -11.17 -11.13 -11.07 -11.01 -10.96 -10.94 -10.94 -10.96 -10.98 -11 -11.01 -11.03 -11.03 -11.02 -11.01 -11.01 -11.03 -11.05 -11.07 -11.08 -11.1 -11.11 -11.12 -11.11 -11.1 -11.09 -11.09 -11.09 -11.09 -11.11 -11.12 -11.14 -11.16 -11.18 -11.2 -11.21 -11.22 -11.23 -11.24 -11.26 -11.29 -11.31 -11.34 -11.35 -11.37 -11.37 -11.38 -11.39 -11.42 -11.46 -11.51 -11.55 -11.58 -11.6 -11.6 -11.61 -11.63 -11.63 -11.64 -11.63 -11.63 -11.62 -11.61 -11.59 -11.58 -11.57 -11.57 -11.58 -11.6 -11.62 -11.63 -11.64 -11.63 -11.61 -11.58 -11.53 -11.48 -11.43 -11.38 -11.35 -11.32 -11.29 -11.27 -11.26 -11.26 -11.29 -11.33 -11.39 -11.45 -11.51 -11.55 -11.58 -11.61 -11.64 -11.66 -11.65 -11.62 -11.57 -11.5 -11.44 -11.39 -11.37 -11.39 -11.47 -11.61 -11.75 -11.88 -12 -12.1 -12.18 -12.25 -12.29 -12.31 -12.28 -12.24 -12.21 -12.24 -12.38 -12.66 -13.09 -13.71 -14.44 -15.49 -18.99 -25.19 -29.63 -30.51 -29.64 -25.42 -18.69 -15.09 -14.5 -14.36 -16.08 -19.51 -23.47 -26.33 -28.44 -29.79 -29.29 -27.84 -24.73 -21.13 -18.25 -15.87 -14.45 -14.09 -13.86 -13.8 -13.92 -14.09 -14.28 -14.44 -14.53 -14.61 -14.71 -14.82 -14.87 -14.86 -14.96 -14.95 -15.24 -15.3 -15.39 -15.5 -15.42 -15.62 -15.67 -15.81 -15.92
-10.39 -10.37 -10.35 -10.33 -10.31 -10.29 -10.28 -10.26 -10.23 -10.18 -10.14 -10.09 -10.05 -10.02 -10 -9.99 -9.99 -9.98 -9.97 -9.98 -10 -10.03 -10.04 -10.05 -10.06 -10.09 -10.15 -10.23 -10.34 -10.46 -10.58 -10.67 -10.71 -10.71 -10.67 -10.62 -10.56 -10.52 -10.49 -10.44 -10.38 -10.31 -10.24 -10.19 -10.16 -10.17 -10.21 -10.26 -10.31 -10.35 -10.39 -10.43 -10.48 -10.51 -10.54 -10.56 -10.56 -10.55 -10.51 -10.48 -10.47 -10.47 -10.49 -10.5 -10.5 -10.5 -10.5 -10.49 -10.47 -10.44 -10.42 -10.4 -10.4 -10.42 -10.45 -10.47 -10.49 -10.49 -10.47 -10.42 -10.37 -10.32 -10.27 -10.21 -10.16 -10.11 -10.07 -10.05 -10.05 -10.04 -10.03 -10.02 -10.01 -10.02 -10.03 -10.04 -10.06 -10.08 -10.11 -10.15 -10.2 -10.25 -10.3 -10.34 -10.37 -10.39 -10.39 -10.38 -10.37 -10.35 -10.34 -10.34 -10.35 -10.36 -10.37 -10.38 -10.38 -10.36 -10.34 -10.33 -10.34 -10.34 -10.32 -10.29 -10.29 -10.32 -10.36 -10.36 -10.31 -10.21 -10.11 -10.05 -10.03 -10.06 -10.11 -10.18 -10.24 -10.27 -10.25 -10.24 -10.26 -10.27 -10.22 -10.16 -10.11 -10.07 -10.05 -10.05 -10.07 -10.09 -10.09 -10.08 -10.07 -10.06 -10.04 -10.03 -10.02 -10.01 -10.01 -10.03 -10.07 -10.11 -10.14 -10.16 -10.2 -10.23 -10.27 -10.31 -10.35 -10.39 -10.45 -10.5 -10.56 -10.62 -10.68 -10.73 -10.79 -10.84 -10.89 -10.94 -10.99 -11.04 -11.46 -12.95 -16.55 -21.71 -25.75 -27.28 -27.3 -27.31 -27.34 -27.37 -27.34 -27.28 -27.25 -27.27 -27.34 -27.43 -27.55 -27.71 -27.89 -28.08 -28.25 -28.35 -28.39 -28.44 -28.53 -28.65 -28.76 -28.87 -29 -29.16 -29.59 -29.8 -29.37 -29.16 -28.85 -26.92 -25.21 -24.47 -25.73 -26.94 -27.56 -27.48 -27.42 -27.39 -27.37 -27.24 -27.23 -27.2 -27.14 -27.06 -26.94 -25.41 -21.92 -17.99 -15.16 -12.97 -11.43 -11.32 -11.23 -11.14 -11.01 -10.87 -10.73 -10.62 -10.53 -10.47 -10.44 -10.42 -10.4 -10.38 -10.35 -10.3 -10.27 -10.25 -10.24 -10.24 -10.25 -10.28 -10.32 -10.39 -10.47 -10.56 -10.63 -10.68 -10.71 -10.74 -10.77 -10.8 -10.84 -10.89 -10.92 -10.95 -10.97 -11 -11.03 -11.07 -11.1 -11.12 -11.12 -11.12 -11.12 -11.13 -11.14 -11.15 -11.15 -11.14 -11.12 -11.08 -11.02 -10.98 -10.96 -10.97 -10.99 -11.01 -11.02 -11.04 -11.04 -11.04 -11.03 -11.02 -11.03 -11.05 -11.08 -11.1 -11.12 -11.13 -11.14 -11.14 -11.14 -11.13 -11.12 -11.11 -11.11 -11.12 -11.14 -11.16 -11.18 -11.21 -11.24 -11.27 -11.28 -11.29 -11.3 -11.31 -11.33 -11.35 -11.38 -11.4 -11.42 -11.43 -11.43 -11.44 -11.45 -11.47 -11.5 -11.52 -11.54 -11.56 -11.56 -11.57 -11.58 -11.59 -11.59 -11.59 -11.59 -11.58 -11.57 -11.55 -11.53 -11.53 -11.54 -11.56 -11.58 -11.61 -11.64 -11.66 -11.67 -11.66 -11.64 -11.61 -11.56 -11.5 -11.44 -11.39 -11.34 -11.31 -11.29 -11.27 -11.26 -11.27 -11.31 -11.36 -11.42 -11.49 -11.55 -11.6 -11.63 -11.66 -11.68 -11.69 -11.68 -11.65 -11.62 -11.6 -11.58 -11.58 -11.58 -11.6 -11.67 -11.78 -11.89 -11.99 -12.1 -12.21 -12.29 -12.36 -12.4 -12.41 -12.4 -12.37 -12.34 -12.36 -12.46 -12.69 -13.07 -13.61 -14.3 -15.06 -17.29 -22.54 -27.94 -30.07 -29.81 -25.82 -18.88 -14.92 -14.32 -14.16 -14.09 -15.54 -17.8 -20.74 -24.66 -28.04 -29.39 -29.51 -28.41 -26.51 -23.84 -20.96 -18.85 -17.33 -15.8 -14.66 -14.48 -14.69 -14.93 -15.12 -15.2 -15.29 -15.44 -15.57 -15.64 -15.99 -16.55 -17.58 -18.72 -19.43 -19.47 -18.86 -17.85 -16.96 -16.52 -15.91 -16.01
-10.44 -10.43 -10.41 -10.39 -10.37 -10.36 -10.35 -10.33 -10.29 -10.26 -10.21 -10.16 -10.12 -10.08 -10.06 -10.05 -10.04 -10.02 -10.01 -10.02 -10.06 -10.09 -10.1 -10.1 -10.11 -10.13 -10.18 -10.26 -10.36 -10.49 -10.63 -10.74 -10.8 -10.8 -10.78 -10.73 -10.69 -10.64 -10.6 -10.56 -10.5 -10.43 -10.37 -10.32 -10.3 -10.3 -10.33 -10.37 -10.4 -10.43 -10.47 -10.52 -10.56 -10.6 -10.64 -10.67 -10.68 -10.66 -10.6 -10.55 -10.55 -10.57 -10.6 -10.62 -10.63 -10.63 -10.63 -10.6 -10.53 -10.47 -10.45 -10.44 -10.45 -10.45 -10.47 -10.49 -10.51 -10.51 -10.49 -10.46 -10.41 -10.37 -10.32 -10.27 -10.22 -10.18 -10.15 -10.13 -10.13 -10.12 -10.11 -10.1 -10.1 -10.09 -10.1 -10.11 -10.12 -10.15 -10.18 -10.21 -10.25 -10.3 -10.36 -10.4 -10.43 -10.44 -10.45 -10.44 -10.41 -10.39 -10.38 -10.39 -10.4 -10.42 -10.43 -10.43 -10.42 -10.39 -10.36 -10.34 -10.35 -10.35 -10.33 -10.3 -10.3 -10.31 -10.34 -10.34 -10.3 -10.22 -10.15 -10.1 -10.1 -10.13 -10.18 -10.24 -10.3 -10.32 -10.3 -10.29 -10.31 -10.33 -10.29 -10.23 -10.18 -10.14 -10.12 -10.12 -10.13 -10.13 -10.13 -10.11 -10.1 -10.09 -10.07 -10.06 -10.05 -10.05 -10.06 -10.08 -10.13 -10.17 -10.19 -10.22 -10.24 -10.27 -10.3 -10.32 -10.35 -10.4 -10.45 -10.51 -10.57 -10.62 -10.67 -10.73 -10.79 -10.85 -10.91 -10.96 -11.03 -11.08 -11.11 -11.13 -13.04 -17.78 -23.71 -27.07 -27.54 -27.62 -27.69 -27.72 -27.68 -27.62 -27.59 -27.62 -27.66 -27.72 -27.83 -27.99 -28.19 -28.39 -28.56 -28.66 -28.73 -28.8 -28.9 -29.01 -29.14 -29.29 -29.72 -30.57 -32.08 -33.86 -36.59 -40.09 -41.91 -40.16 -34.36 -30.02 -27.85 -28.03 -27.92 -27.81 -27.74 -27.7 -27.69 -27.7 -27.7 -27.7 -27.66 -27.6 -27.49 -27.35 -25.81 -23.61 -20.77 -16.83 -13.31 -11.78 -11.31 -11.21 -11.1 -10.97 -10.85 -10.75 -10.68 -10.61 -10.56 -10.53 -10.5 -10.47 -10.42 -10.37 -10.32 -10.28 -10.26 -10.26 -10.26 -10.28 -10.33 -10.39 -10.48 -10.56 -10.62 -10.67 -10.7 -10.73 -10.76 -10.79 -10.84 -10.89 -10.93 -10.96 -10.98 -11 -11.03 -11.06 -11.09 -11.1 -11.09 -11.08 -11.07 -11.07 -11.08 -11.09 -11.1 -11.11 -11.1 -11.09 -11.05 -11.02 -11.02 -11.03 -11.05 -11.06 -11.07 -11.07 -11.07 -11.05 -11.03 -11.02 -11.03 -11.05 -11.08 -11.1 -11.12 -11.13 -11.14 -11.14 -11.14 -11.14 -11.14 -11.14 -11.14 -11.15 -11.17 -11.19 -11.22 -11.25 -11.28 -11.31 -11.32 -11.33 -11.34 -11.35 -11.37 -11.39 -11.41 -11.42 -11.44 -11.45 -11.46 -11.47 -11.48 -11.5 -11.51 -11.52 -11.52 -11.53 -11.53 -11.53 -11.54 -11.54 -11.54 -11.54 -11.53 -11.52 -11.51 -11.49 -11.47 -11.47 -11.49 -11.53 -11.57 -11.61 -11.64 -11.67 -11.68 -11.67 -11.66 -11.62 -11.57 -11.51 -11.45 -11.39 -11.35 -11.32 -11.3 -11.28 -11.27 -11.28 -11.33 -11.4 -11.46 -11.53 -11.58 -11.63 -11.66 -11.69 -11.71 -11.72 -11.7 -11.68 -11.68 -11.69 -11.72 -11.74 -11.77 -11.81 -11.87 -11.95 -12.01 -12.09 -12.19 -12.3 -12.39 -12.46 -12.49 -12.51 -12.51 -12.49 -12.46 -12.45 -12.52 -12.71 -13.06 -13.58 -14.19 -14.72 -15.78 -20.24 -26.5 -29.77 -29.64 -25.79 -18.98 -14.78 -14.14 -13.94 -13.84 -13.87 -14.48 -16.19 -19.79 -23.69 -26.06 -27.83 -28.91 -29.05 -28.15 -26.53 -24.94 -23.32 -20.97 -19.07 -18.46 -18.58 -18.86 -19.07 -19.18 -19.29 -19.48 -19.64 -19.85 -20.46 -21.67 -23.37 -25.34 -26.44 -26.46 -25.36 -23.43 -21.79 -19.67 -17.14 -16.09
-10.49 -10.48 -10.47 -10.45 -10.44 -10.42 -10.41 -10.39 -10.36 -10.33 -10.29 -10.24 -10.19 -10.16 -10.14 -10.12 -10.1 -10.08 -10.07 -10.08 -10.12 -10.16 -10.16 -10.16 -10.16 -10.17 -10.21 -10.29 -10.39 -10.52 -10.67 -10.8 -10.86 -10.88 -10.87 -10.85 -10.81 -10.77 -10.73 -10.68 -10.63 -10.56 -10.49 -10.45 -10.43 -10.44 -10.45 -10.47 -10.49 -10.51 -10.55 -10.6 -10.64 -10.69 -10.74 -10.77 -10.79 -10.76 -10.7 -10.65 -10.65 -10.68 -10.72 -10.75 -10.77 -10.78 -10.76 -10.7 -10.6 -10.51 -10.48 -10.49 -10.48 -10.48 -10.49 -10.51 -10.52 -10.53 -10.51 -10.49 -10.46 -10.42 -10.37 -10.33 -10.28 -10.24 -10.22 -10.2 -10.2 -10.19 -10.18 -10.18 -10.17 -10.17 -10.17 -10.18 -10.2 -10.22 -10.24 -10.27 -10.31 -10.36 -10.42 -10.46 -10.49 -10.51 -10.51 -10.49 -10.47 -10.44 -10.43 -10.44 -10.47 -10.5 -10.5 -10.48 -10.45 -10.4 -10.36 -10.34 -10.34 -10.35 -10.35 -10.34 -10.33 -10.32 -10.32 -10.3 -10.28 -10.24 -10.21 -10.2 -10.21 -10.24 -10.28 -10.33 -10.37 -10.38 -10.36 -10.34 -10.36 -10.37 -10.33 -10.28 -10.24 -10.2 -10.18 -10.18 -10.18 -10.17 -10.16 -10.14 -10.13 -10.13 -10.12 -10.11 -10.1 -10.11 -10.12 -10.15 -10.19 -10.22 -10.24 -10.26 -10.28 -10.3 -10.31 -10.33 -10.36 -10.4 -10.45 -10.51 -10.56 -10.61 -10.66 -10.71 -10.77 -10.83 -10.88 -10.95 -11.01 -11.07 -11.1 -11.13 -11.57 -14.92 -20.87 -26.07 -27.68 -27.8 -27.91 -27.97 -27.95 -27.93 -27.94 -27.98 -28.01 -28.06 -28.16 -28.32 -28.51 -28.69 -28.85 -28.97 -29.05 -29.13 -29.23 -29.34 -29.72 -30.82 -32.38 -35.03 -38.37 -41.44 -44.46 -47.68 -50.03 -46.3 -38.87 -31.46 -28.82 -28.13 -27.98 -27.85 -27.77 -27.73 -27.73 -27.74 -27.76 -27.77 -27.76 -27.72 -27.62 -27.49 -27.35 -26.82 -25.27 -21.75 -17.79 -14.93 -12.77 -11.28 -11.18 -11.07 -10.98 -10.9 -10.82 -10.75 -10.69 -10.64 -10.61 -10.56 -10.51 -10.44 -10.39 -10.34 -10.31 -10.29 -10.29 -10.3 -10.34 -10.4 -10.48 -10.55 -10.6 -10.65 -10.68 -10.71 -10.74 -10.78 -10.83 -10.89 -10.93 -10.96 -10.98 -11 -11.02 -11.04 -11.06 -11.06 -11.05 -11.03 -11.01 -11.01 -11.01 -11.03 -11.04 -11.06 -11.09 -11.1 -11.09 -11.09 -11.09 -11.1 -11.12 -11.13 -11.13 -11.12 -11.1 -11.06 -11.04 -11.03 -11.03 -11.04 -11.06 -11.07 -11.09 -11.1 -11.11 -11.12 -11.13 -11.14 -11.15 -11.16 -11.17 -11.18 -11.2 -11.23 -11.26 -11.29 -11.31 -11.33 -11.35 -11.35 -11.36 -11.37 -11.38 -11.39 -11.41 -11.42 -11.42 -11.43 -11.45 -11.47 -11.49 -11.49 -11.5 -11.5 -11.5 -11.5 -11.5 -11.5 -11.5 -11.49 -11.49 -11.48 -11.47 -11.45 -11.43 -11.42 -11.41 -11.42 -11.45 -11.49 -11.53 -11.58 -11.62 -11.65 -11.66 -11.66 -11.65 -11.62 -11.57 -11.52 -11.46 -11.41 -11.37 -11.34 -11.31 -11.3 -11.29 -11.31 -11.36 -11.43 -11.5 -11.56 -11.61 -11.65 -11.68 -11.71 -11.73 -11.73 -11.72 -11.71 -11.73 -11.77 -11.83 -11.88 -11.93 -11.99 -12.05 -12.09 -12.13 -12.19 -12.27 -12.38 -12.47 -12.54 -12.59 -12.62 -12.62 -12.6 -12.56 -12.55 -12.58 -12.73 -13.06 -13.52 -14.03 -14.5 -15.21 -19.26 -25.76 -29.63 -29.5 -26.33 -19.99 -15.37 -14.05 -13.81 -13.66 -13.66 -13.86 -14.21 -15.93 -18.08 -20.42 -22.81 -25.41 -27.47 -28.6 -28.75 -28.62 -27.89 -26.48 -25.39 -25.26 -25.55 -25.84 -26.07 -26.19 -26.34 -26.56 -26.74 -26.86 -27.28 -27.92 -28.97 -30.08 -30.74 -30.73 -30.04 -28.87 -27.45 -24.22 -19.13 -16.52
-10.54 -10.53 -10.53 -10.52 -10.5 -10.48 -10.47 -10.45 -10.43 -10.4 -10.36 -10.32 -10.28 -10.25 -10.23 -10.2 -10.18 -10.16 -10.15 -10.16 -10.2 -10.22 -10.22 -10.22 -10.21 -10.22 -10.26 -10.33 -10.43 -10.56 -10.71 -10.83 -10.9 -10.93 -10.94 -10.93 -10.91 -10.88 -10.85 -10.82 -10.77 -10.71 -10.64 -10.6 -10.57 -10.56 -10.55 -10.55 -10.56 -10.59 -10.63 -10.67 -10.72 -10.77 -10.82 -10.87 -10.88 -10.86 -10.81 -10.77 -10.78 -10.81 -10.85 -10.89 -10.92 -10.92 -10.89 -10.8 -10.66 -10.56 -10.53 -10.53 -10.52 -10.51 -10.51 -10.53 -10.54 -10.55 -10.54 -10.52 -10.49 -10.46 -10.42 -10.38 -10.34 -10.31 -10.28 -10.26 -10.25 -10.25 -10.25 -10.25 -10.24 -10.23 -10.24 -10.25 -10.27 -10.29 -10.3 -10.32 -10.37 -10.42 -10.47 -10.52 -10.55 -10.57 -10.57 -10.55 -10.51 -10.49 -10.48 -10.5 -10.54 -10.57 -10.56 -10.53 -10.48 -10.41 -10.36 -10.33 -10.34 -10.36 -10.38 -10.38 -10.36 -10.33 -10.3 -10.27 -10.26 -10.27 -10.29 -10.32 -10.34 -10.36 -10.39 -10.42 -10.44 -10.44 -10.42 -10.4 -10.4 -10.4 -10.37 -10.32 -10.28 -10.26 -10.25 -10.24 -10.23 -10.21 -10.19 -10.18 -10.18 -10.17 -10.17 -10.16 -10.16 -10.17 -10.19 -10.21 -10.23 -10.26 -10.29 -10.3 -10.31 -10.32 -10.33 -10.34 -10.36 -10.4 -10.45 -10.5 -10.55 -10.59 -10.63 -10.67 -10.72 -10.77 -10.82 -10.88 -10.93 -10.99 -11.03 -11.07 -11.11 -12.67 -17.85 -23.83 -27.26 -27.82 -27.96 -28.07 -28.13 -28.2 -28.27 -28.34 -28.4 -28.47 -28.56 -28.69 -28.83 -28.98 -29.13 -29.24 -29.31 -29.37 -29.71 -30.75 -32.93 -36.01 -38.96 -41.47 -45.39 -48.03 -49.63 -50.26 -48.61 -43.6 -35.65 -30.45 -28.23 -28.12 -27.96 -27.82 -27.73 -27.7 -27.71 -27.73 -27.75 -27.77 -27.78 -27.75 -27.69 -27.58 -27.46 -27.31 -27.15 -25.59 -23.35 -20.48 -16.55 -13.09 -11.61 -11.17 -11.1 -11.04 -10.96 -10.89 -10.82 -10.76 -10.71 -10.65 -10.58 -10.52 -10.47 -10.43 -10.39 -10.35 -10.34 -10.34 -10.36 -10.4 -10.47 -10.54 -10.59 -10.63 -10.66 -10.69 -10.73 -10.77 -10.83 -10.88 -10.93 -10.96 -10.98 -10.99 -11 -11.02 -11.02 -11.02 -11 -10.98 -10.96 -10.96 -10.96 -10.97 -11 -11.03 -11.08 -11.11 -11.13 -11.15 -11.16 -11.17 -11.18 -11.19 -11.18 -11.17 -11.14 -11.1 -11.07 -11.04 -11.02 -11.02 -11.03 -11.04 -11.05 -11.06 -11.08 -11.09 -11.11 -11.14 -11.16 -11.18 -11.2 -11.21 -11.23 -11.26 -11.28 -11.31 -11.33 -11.35 -11.36 -11.37 -11.37 -11.38 -11.38 -11.39 -11.4 -11.4 -11.4 -11.41 -11.43 -11.46 -11.47 -11.48 -11.48 -11.48 -11.47 -11.47 -11.47 -11.46 -11.45 -11.44 -11.44 -11.43 -11.4 -11.37 -11.35 -11.34 -11.35 -11.37 -11.4 -11.45 -11.49 -11.54 -11.58 -11.61 -11.63 -11.64 -11.63 -11.61 -11.57 -11.52 -11.47 -11.42 -11.39 -11.37 -11.35 -11.33 -11.32 -11.34 -11.4 -11.48 -11.54 -11.58 -11.62 -11.65 -11.68 -11.71 -11.73 -11.74 -11.74 -11.75 -11.78 -11.84 -11.92 -12 -12.08 -12.15 -12.19 -12.23 -12.25 -12.3 -12.37 -12.45 -12.54 -12.62 -12.68 -12.71 -12.71 -12.69 -12.66 -12.64 -12.65 -12.77 -13.04 -13.41 -13.86 -14.32 -15.09 -18.34 -24.43 -28.86 -29.67 -27.38 -21.8 -16.49 -14.32 -13.82 -13.65 -13.6 -13.74 -14.02 -14.38 -15.02 -15.84 -17.57 -19.99 -22.56 -25.06 -27.11 -28.34 -28.87 -28.77 -28.76 -28.97 -29.23 -29.51 -29.71 -29.83 -29.99 -30.23 -30.44 -30.59 -30.71 -30.94 -31.01 -31.29 -31.29 -31.28 -31.24 -30.91 -30.46 -26.63 -20.19 -16.56
-10.57 -10.58 -10.58 -10.57 -10.56 -10.54 -10.52 -10.51 -10.49 -10.47 -10.44 -10.41 -10.38 -10.36 -10.33 -10.3 -10.27 -10.26 -10.24 -10.25 -10.27 -10.29 -10.28 -10.28 -10.27 -10.28 -10.31 -10.38 -10.48 -10.6 -10.73 -10.84 -10.91 -10.96 -10.98 -10.99 -10.99 -10.99 -10.98 -10.96 -10.92 -10.86 -10.8 -10.75 -10.7 -10.66 -10.64 -10.62 -10.63 -10.66 -10.7 -10.74 -10.79 -10.84 -10.89 -10.94 -10.96 -10.96 -10.94 -10.92 -10.92 -10.95 -10.99 -11.04 -11.06 -11.05 -11 -10.88 -10.73 -10.61 -10.59 -10.59 -10.57 -10.56 -10.55 -10.55 -10.56 -10.57 -10.56 -10.55 -10.52 -10.49 -10.46 -10.42 -10.38 -10.35 -10.33 -10.31 -10.3 -10.29 -10.29 -10.29 -10.29 -10.28 -10.29 -10.31 -10.32 -10.33 -10.34 -10.37 -10.41 -10.46 -10.52 -10.56 -10.59 -10.61 -10.61 -10.59 -10.55 -10.52 -10.51 -10.54 -10.58 -10.61 -10.6 -10.56 -10.5 -10.42 -10.36 -10.33 -10.34 -10.36 -10.4 -10.41 -10.39 -10.34 -10.29 -10.26 -10.27 -10.31 -10.37 -10.43 -10.46 -10.48 -10.49 -10.5 -10.51 -10.49 -10.47 -10.45 -10.44 -10.43 -10.39 -10.35 -10.33 -10.31 -10.31 -10.3 -10.28 -10.25 -10.23 -10.22 -10.22 -10.22 -10.22 -10.22 -10.22 -10.23 -10.24 -10.26 -10.28 -10.3 -10.32 -10.33 -10.34 -10.34 -10.34 -10.35 -10.36 -10.4 -10.45 -10.5 -10.54 -10.57 -10.6 -10.63 -10.67 -10.7 -10.75 -10.79 -10.83 -10.87 -10.92 -10.96 -11.02 -11.49 -14.86 -20.84 -25.67 -27.73 -27.9 -28.08 -28.26 -28.43 -28.58 -28.7 -28.81 -28.92 -29.01 -29.08 -29.16 -29.27 -29.38 -29.47 -29.76 -30.72 -32.84 -36.1 -39.87 -43.09 -44.2 -44.98 -47.5 -49.89 -48.77 -45.83 -41.85 -36.1 -30.94 -28.19 -28.12 -28.02 -27.87 -27.73 -27.65 -27.62 -27.63 -27.65 -27.68 -27.7 -27.72 -27.72 -27.69 -27.62 -27.53 -27.4 -27.25 -27.08 -26.52 -24.94 -21.41 -17.49 -14.72 -12.63 -11.34 -11.17 -11.1 -11.03 -10.96 -10.89 -10.82 -10.75 -10.68 -10.63 -10.59 -10.54 -10.49 -10.45 -10.41 -10.4 -10.39 -10.42 -10.47 -10.53 -10.57 -10.61 -10.64 -10.68 -10.71 -10.76 -10.81 -10.87 -10.91 -10.94 -10.96 -10.97 -10.98 -10.99 -10.99 -10.99 -10.97 -10.95 -10.93 -10.92 -10.92 -10.94 -10.98 -11.03 -11.09 -11.14 -11.18 -11.2 -11.22 -11.23 -11.24 -11.24 -11.22 -11.2 -11.18 -11.14 -11.1 -11.05 -11.03 -11.01 -11.01 -11.02 -11.02 -11.03 -11.05 -11.07 -11.1 -11.14 -11.17 -11.2 -11.22 -11.24 -11.26 -11.28 -11.31 -11.33 -11.35 -11.36 -11.37 -11.38 -11.39 -11.39 -11.39 -11.39 -11.39 -11.38 -11.38 -11.38 -11.41 -11.44 -11.45 -11.45 -11.45 -11.45 -11.45 -11.44 -11.44 -11.43 -11.41 -11.39 -11.38 -11.36 -11.33 -11.3 -11.28 -11.28 -11.3 -11.32 -11.36 -11.4 -11.45 -11.49 -11.53 -11.56 -11.58 -11.59 -11.59 -11.58 -11.55 -11.52 -11.48 -11.44 -11.42 -11.4 -11.39 -11.37 -11.37 -11.39 -11.46 -11.53 -11.57 -11.6 -11.63 -11.65 -11.68 -11.7 -11.72 -11.74 -11.76 -11.79 -11.83 -11.9 -11.99 -12.1 -12.19 -12.27 -12.32 -12.35 -12.38 -12.42 -12.47 -12.54 -12.61 -12.69 -12.75 -12.79 -12.8 -12.79 -12.75 -12.71 -12.7 -12.78 -13 -13.32 -13.74 -14.23 -14.77 -16.82 -21.94 -27.34 -29.38 -28.04 -22.93 -17.22 -14.41 -14.04 -13.84 -13.9 -13.71 -13.92 -14.2 -14.46 -14.63 -14.95 -15.74 -17.34 -19.64 -22.19 -24.78 -26.98 -28.35 -28.76 -28.9 -29.1 -29.56 -29.73 -29.83 -30.11 -30.33 -30.56 -30.75 -30.93 -31.07 -31.17 -31.24 -31.28 -31.29 -31.26 -31.2 -30.76 -27.04 -20.21 -16.58
-10.61 -10.62 -10.63 -10.62 -10.61 -10.59 -10.58 -10.56 -10.54 -10.53 -10.51 -10.49 -10.48 -10.45 -10.43 -10.4 -10.38 -10.36 -10.34 -10.33 -10.34 -10.35 -10.34 -10.33 -10.33 -10.34 -10.36 -10.43 -10.52 -10.64 -10.76 -10.86 -10.93 -10.98 -11.01 -11.05 -11.08 -11.09 -11.09 -11.07 -11.04 -10.99 -10.93 -10.88 -10.82 -10.76 -10.72 -10.7 -10.7 -10.72 -10.76 -10.8 -10.85 -10.91 -10.96 -11 -11.04 -11.06 -11.07 -11.07 -11.08 -11.11 -11.15 -11.18 -11.19 -11.17 -11.1 -10.97 -10.8 -10.68 -10.65 -10.65 -10.64 -10.61 -10.59 -10.59 -10.59 -10.59 -10.59 -10.57 -10.55 -10.51 -10.48 -10.45 -10.42 -10.39 -10.36 -10.34 -10.33 -10.32 -10.32 -10.32 -10.31 -10.31 -10.32 -10.34 -10.35 -10.36 -10.37 -10.39 -10.43 -10.48 -10.53 -10.57 -10.61 -10.63 -10.63 -10.61 -10.57 -10.53 -10.52 -10.54 -10.59 -10.63 -10.62 -10.57 -10.51 -10.43 -10.37 -10.34 -10.34 -10.37 -10.41 -10.43 -10.41 -10.36 -10.31 -10.28 -10.3 -10.37 -10.45 -10.51 -10.55 -10.56 -10.56 -10.57 -10.55 -10.53 -10.5 -10.48 -10.48 -10.46 -10.43 -10.39 -10.37 -10.36 -10.36 -10.34 -10.32 -10.29 -10.27 -10.26 -10.26 -10.26 -10.26 -10.27 -10.28 -10.28 -10.29 -10.3 -10.32 -10.34 -10.36 -10.36 -10.37 -10.37 -10.37 -10.37 -10.38 -10.41 -10.46 -10.51 -10.54 -10.56 -10.58 -10.6 -10.63 -10.66 -10.69 -10.72 -10.74 -10.77 -10.82 -10.87 -10.94 -11.01 -12.58 -16.68 -21.98 -26.15 -27.84 -28.09 -28.36 -28.64 -28.88 -29.07 -29.22 -29.35 -29.43 -29.46 -29.5 -29.55 -29.87 -30.84 -32.9 -36.08 -39.77 -43.49 -44.66 -43.75 -41.32 -39.82 -41.86 -43.41 -41.55 -37.43 -33.37 -30.24 -28.08 -28.04 -27.99 -27.88 -27.74 -27.62 -27.55 -27.52 -27.53 -27.55 -27.57 -27.61 -27.64 -27.66 -27.65 -27.62 -27.57 -27.47 -27.34 -27.18 -26.98 -26.77 -25.17 -22.97 -20.21 -16.75 -13.62 -12 -11.63 -11.2 -11.13 -11.05 -10.98 -10.9 -10.84 -10.78 -10.73 -10.68 -10.62 -10.57 -10.52 -10.48 -10.45 -10.44 -10.47 -10.51 -10.55 -10.59 -10.63 -10.67 -10.7 -10.74 -10.79 -10.84 -10.88 -10.91 -10.93 -10.94 -10.96 -10.96 -10.97 -10.96 -10.96 -10.94 -10.92 -10.91 -10.92 -10.94 -10.99 -11.05 -11.13 -11.18 -11.22 -11.24 -11.26 -11.26 -11.26 -11.25 -11.23 -11.2 -11.18 -11.15 -11.11 -11.06 -11.03 -11.01 -11.01 -11.01 -11.01 -11.02 -11.04 -11.07 -11.1 -11.14 -11.18 -11.21 -11.23 -11.25 -11.28 -11.3 -11.32 -11.34 -11.36 -11.37 -11.39 -11.4 -11.41 -11.41 -11.41 -11.4 -11.39 -11.37 -11.36 -11.37 -11.39 -11.41 -11.42 -11.42 -11.42 -11.42 -11.42 -11.42 -11.41 -11.39 -11.37 -11.35 -11.32 -11.3 -11.27 -11.24 -11.23 -11.23 -11.25 -11.28 -11.32 -11.36 -11.4 -11.43 -11.47 -11.5 -11.53 -11.54 -11.55 -11.54 -11.53 -11.51 -11.49 -11.47 -11.46 -11.45 -11.44 -11.43 -11.42 -11.45 -11.52 -11.59 -11.62 -11.63 -11.65 -11.66 -11.68 -11.7 -11.72 -11.74 -11.78 -11.83 -11.89 -11.96 -12.06 -12.16 -12.27 -12.35 -12.42 -12.46 -12.5 -12.53 -12.57 -12.62 -12.68 -12.75 -12.81 -12.86 -12.89 -12.88 -12.84 -12.79 -12.75 -12.79 -12.99 -13.31 -13.73 -14.19 -14.57 -15.48 -19.81 -26.04 -29.22 -28.04 -23.2 -17.28 -14.96 -15.29 -15.63 -15.14 -14.37 -13.82 -14.02 -14.23 -14.41 -14.54 -14.58 -14.78 -15.46 -17.03 -19.4 -22.08 -24.09 -24.92 -25.12 -25.9 -27.15 -27.93 -28.36 -29.04 -29.57 -29.8 -30.04 -30.27 -30.45 -30.57 -30.92 -31 -31.18 -31.2 -31.18 -30.76 -27.04 -20.21 -16.58
-10.64 -10.65 -10.66 -10.66 -10.65 -10.63 -10.62 -10.6 -10.59 -10.58 -10.58 -10.57 -10.55 -10.54 -10.52 -10.5 -10.47 -10.44 -10.42 -10.4 -10.4 -10.4 -10.4 -10.39 -10.38 -10.39 -10.42 -10.47 -10.56 -10.67 -10.77 -10.87 -10.93 -10.99 -11.04 -11.1 -11.15 -11.18 -11.18 -11.16 -11.14 -11.1 -11.04 -10.98 -10.91 -10.85 -10.8 -10.77 -10.77 -10.78 -10.81 -10.86 -10.91 -10.97 -11.02 -11.07 -11.12 -11.16 -11.2 -11.22 -11.24 -11.27 -11.3 -11.32 -11.31 -11.27 -11.19 -11.06 -10.89 -10.75 -10.72 -10.72 -10.7 -10.67 -10.64 -10.62 -10.61 -10.61 -10.61 -10.6 -10.57 -10.53 -10.5 -10.47 -10.44 -10.41 -10.39 -10.37 -10.35 -10.34 -10.33 -10.33 -10.33 -10.33 -10.34 -10.35 -10.36 -10.37 -10.38 -10.4 -10.43 -10.47 -10.52 -10.57 -10.6 -10.62 -10.63 -10.61 -10.57 -10.53 -10.52 -10.54 -10.58 -10.62 -10.62 -10.57 -10.51 -10.44 -10.38 -10.35 -10.36 -10.39 -10.43 -10.44 -10.43 -10.39 -10.35 -10.34 -10.37 -10.44 -10.51 -10.57 -10.6 -10.61 -10.61 -10.61 -10.59 -10.56 -10.53 -10.51 -10.5 -10.49 -10.47 -10.44 -10.43 -10.41 -10.4 -10.38 -10.36 -10.33 -10.32 -10.3 -10.3 -10.3 -10.3 -10.31 -10.32 -10.32 -10.33 -10.34 -10.36 -10.38 -10.39 -10.4 -10.41 -10.41 -10.41 -10.41 -10.42 -10.45 -10.5 -10.54 -10.56 -10.57 -10.59 -10.6 -10.63 -10.65 -10.67 -10.69 -10.7 -10.72 -10.76 -10.81 -10.87 -10.94 -11.02 -13.02 -17.86 -23.91 -27.44 -28.12 -28.47 -28.83 -29.15 -29.4 -29.59 -29.72 -29.78 -29.8 -29.8 -30.73 -33.04 -36.2 -39.83 -43.48 -46.67 -46.68 -42.09 -36.75 -33.36 -31.9 -32.99 -34.62 -33.14 -30.07 -28.53 -27.95 -27.92 -27.89 -27.83 -27.74 -27.62 -27.51 -27.45 -27.42 -27.43 -27.44 -27.47 -27.5 -27.53 -27.56 -27.58 -27.59 -27.56 -27.5 -27.39 -27.23 -27.03 -26.79 -26.56 -26.02 -24.71 -21.81 -18.42 -16.41 -14.59 -12.76 -11.67 -11.34 -11.15 -11.09 -11.02 -10.96 -10.89 -10.83 -10.76 -10.71 -10.64 -10.58 -10.52 -10.49 -10.49 -10.51 -10.55 -10.59 -10.63 -10.67 -10.7 -10.73 -10.77 -10.81 -10.85 -10.87 -10.89 -10.91 -10.93 -10.94 -10.95 -10.95 -10.96 -10.95 -10.94 -10.93 -10.95 -10.98 -11.03 -11.1 -11.17 -11.23 -11.26 -11.27 -11.28 -11.27 -11.26 -11.23 -11.21 -11.18 -11.16 -11.14 -11.1 -11.06 -11.03 -11.02 -11.01 -11.01 -11.02 -11.03 -11.04 -11.07 -11.11 -11.15 -11.18 -11.21 -11.23 -11.25 -11.28 -11.3 -11.33 -11.35 -11.37 -11.39 -11.4 -11.42 -11.43 -11.44 -11.43 -11.41 -11.39 -11.38 -11.36 -11.36 -11.37 -11.39 -11.39 -11.38 -11.38 -11.39 -11.39 -11.39 -11.38 -11.36 -11.33 -11.3 -11.27 -11.24 -11.21 -11.19 -11.18 -11.19 -11.22 -11.25 -11.28 -11.31 -11.34 -11.37 -11.41 -11.44 -11.47 -11.49 -11.49 -11.49 -11.5 -11.5 -11.51 -11.51 -11.5 -11.5 -11.49 -11.49 -11.49 -11.52 -11.59 -11.65 -11.67 -11.67 -11.68 -11.69 -11.7 -11.72 -11.74 -11.77 -11.82 -11.88 -11.95 -12.03 -12.12 -12.22 -12.33 -12.43 -12.5 -12.56 -12.59 -12.62 -12.65 -12.69 -12.74 -12.8 -12.87 -12.93 -12.96 -12.96 -12.93 -12.88 -12.82 -12.85 -13.05 -13.37 -13.76 -14.15 -14.48 -15.04 -18.93 -25.27 -29.19 -28.04 -22.98 -17.8 -16.96 -18.91 -18.63 -16.94 -14.9 -13.95 -13.84 -14 -14.17 -14.33 -14.43 -14.44 -14.37 -14.53 -15.26 -16.66 -17.86 -18.18 -18.43 -19.58 -21.48 -22.78 -23.64 -24.65 -25.35 -25.69 -25.93 -26.19 -26.4 -27.22 -28.48 -29.62 -30.29 -30.94 -31.09 -30.72 -27.01 -20.18 -16.54
-10.67 -10.68 -10.68 -10.68 -10.67 -10.65 -10.64 -10.62 -10.62 -10.62 -10.62 -10.62 -10.61 -10.6 -10.59 -10.57 -10.54 -10.51 -10.48 -10.46 -10.45 -10.45 -10.44 -10.44 -10.44 -10.45 -10.47 -10.52 -10.6 -10.69 -10.78 -10.87 -10.94 -11 -11.06 -11.13 -11.19 -11.24 -11.25 -11.23 -11.22 -11.18 -11.12 -11.05 -10.98 -10.92 -10.87 -10.84 -10.83 -10.84 -10.87 -10.91 -10.96 -11.02 -11.07 -11.13 -11.19 -11.26 -11.31 -11.36 -11.39 -11.43 -11.45 -11.44 -11.41 -11.36 -11.27 -11.13 -10.95 -10.82 -10.78 -10.77 -10.75 -10.72 -10.69 -10.66 -10.64 -10.63 -10.63 -10.62 -10.59 -10.55 -10.52 -10.49 -10.47 -10.45 -10.42 -10.4 -10.38 -10.35 -10.35 -10.35 -10.35 -10.35 -10.36 -10.37 -10.37 -10.38 -10.39 -10.4 -10.43 -10.47 -10.51 -10.55 -10.59 -10.61 -10.62 -10.59 -10.55 -10.52 -10.51 -10.53 -10.57 -10.61 -10.61 -10.57 -10.51 -10.44 -10.39 -10.36 -10.37 -10.4 -10.44 -10.45 -10.44 -10.42 -10.4 -10.4 -10.45 -10.52 -10.57 -10.62 -10.64 -10.65 -10.66 -10.65 -10.62 -10.59 -10.55 -10.53 -10.53 -10.53 -10.52 -10.5 -10.48 -10.46 -10.43 -10.41 -10.39 -10.37 -10.36 -10.34 -10.34 -10.33 -10.33 -10.34 -10.34 -10.35 -10.35 -10.37 -10.39 -10.41 -10.42 -10.44 -10.45 -10.46 -10.47 -10.47 -10.49 -10.51 -10.56 -10.6 -10.61 -10.62 -10.63 -10.64 -10.66 -10.68 -10.69 -10.7 -10.7 -10.7 -10.73 -10.77 -10.83 -10.91 -11 -11.51 -14.95 -21.04 -26.45 -28.27 -28.62 -29 -29.35 -29.64 -29.83 -29.96 -29.59 -29.6 -30.63 -34.57 -39.29 -43.58 -46.72 -48.75 -49.12 -44.79 -36.66 -31.67 -32.15 -33.71 -34.29 -34.3 -32.81 -29.23 -27.73 -27.73 -27.71 -27.68 -27.65 -27.6 -27.51 -27.42 -27.37 -27.34 -27.33 -27.34 -27.36 -27.37 -27.4 -27.43 -27.46 -27.48 -27.48 -27.44 -27.35 -27.21 -27.01 -26.77 -26.52 -26.36 -26.32 -25.32 -23.94 -22.39 -20.41 -17.63 -15.22 -13.31 -12.02 -11.63 -11.19 -11.12 -11.05 -10.98 -10.91 -10.84 -10.76 -10.68 -10.61 -10.56 -10.54 -10.55 -10.58 -10.62 -10.66 -10.69 -10.72 -10.74 -10.77 -10.8 -10.82 -10.84 -10.87 -10.89 -10.9 -10.92 -10.94 -10.96 -10.97 -10.97 -10.96 -10.96 -10.98 -11.03 -11.08 -11.15 -11.22 -11.26 -11.29 -11.29 -11.29 -11.27 -11.25 -11.21 -11.18 -11.16 -11.14 -11.12 -11.09 -11.06 -11.04 -11.02 -11.02 -11.02 -11.02 -11.04 -11.06 -11.08 -11.12 -11.15 -11.19 -11.21 -11.23 -11.25 -11.27 -11.3 -11.33 -11.36 -11.38 -11.39 -11.42 -11.44 -11.46 -11.46 -11.45 -11.43 -11.41 -11.38 -11.36 -11.35 -11.36 -11.36 -11.35 -11.35 -11.35 -11.35 -11.36 -11.36 -11.35 -11.33 -11.3 -11.26 -11.23 -11.2 -11.17 -11.16 -11.15 -11.16 -11.19 -11.23 -11.25 -11.27 -11.29 -11.31 -11.35 -11.38 -11.41 -11.42 -11.43 -11.44 -11.46 -11.49 -11.52 -11.54 -11.55 -11.55 -11.56 -11.56 -11.57 -11.6 -11.65 -11.7 -11.72 -11.73 -11.73 -11.74 -11.75 -11.77 -11.79 -11.81 -11.86 -11.92 -12 -12.09 -12.19 -12.29 -12.39 -12.49 -12.58 -12.64 -12.67 -12.69 -12.72 -12.76 -12.81 -12.87 -12.93 -12.98 -13.01 -13.02 -13 -12.96 -12.93 -12.97 -13.15 -13.46 -13.8 -14.16 -14.46 -15.02 -17.77 -23.59 -27.81 -27.39 -22.41 -18.11 -19.78 -21.81 -20.24 -16.76 -14.59 -13.64 -13.71 -13.84 -13.97 -14.12 -14.24 -14.3 -14.27 -14.22 -14.18 -14.4 -14.48 -14.45 -14.43 -15.1 -16.23 -16.92 -17.29 -17.89 -18.35 -18.52 -18.74 -18.96 -19.41 -20.7 -22.84 -24.68 -26.67 -28.78 -30.23 -30.62 -26.93 -20.34 -16.45
-10.69 -10.69 -10.69 -10.68 -10.67 -10.65 -10.64 -10.63 -10.64 -10.65 -10.65 -10.65 -10.64 -10.63 -10.63 -10.61 -10.59 -10.56 -10.53 -10.5 -10.49 -10.48 -10.48 -10.49 -10.49 -10.5 -10.52 -10.56 -10.63 -10.71 -10.8 -10.88 -10.94 -11 -11.07 -11.14 -11.21 -11.26 -11.28 -11.28 -11.27 -11.24 -11.18 -11.12 -11.04 -10.98 -10.93 -10.89 -10.88 -10.89 -10.92 -10.95 -11 -11.06 -11.12 -11.19 -11.27 -11.34 -11.41 -11.48 -11.52 -11.55 -11.56 -11.54 -11.51 -11.44 -11.34 -11.18 -11 -10.87 -10.83 -10.82 -10.8 -10.76 -10.72 -10.69 -10.67 -10.66 -10.65 -10.64 -10.61 -10.58 -10.55 -10.53 -10.51 -10.49 -10.47 -10.45 -10.42 -10.39 -10.38 -10.38 -10.38 -10.38 -10.38 -10.39 -10.39 -10.4 -10.4 -10.41 -10.44 -10.47 -10.5 -10.54 -10.57 -10.59 -10.59 -10.57 -10.53 -10.5 -10.49 -10.51 -10.55 -10.59 -10.59 -10.56 -10.51 -10.45 -10.4 -10.38 -10.39 -10.42 -10.45 -10.46 -10.46 -10.45 -10.45 -10.48 -10.53 -10.59 -10.64 -10.67 -10.69 -10.7 -10.69 -10.68 -10.66 -10.62 -10.58 -10.55 -10.55 -10.56 -10.56 -10.55 -10.53 -10.5 -10.47 -10.45 -10.43 -10.41 -10.39 -10.38 -10.37 -10.37 -10.36 -10.36 -10.36 -10.37 -10.37 -10.38 -10.41 -10.44 -10.46 -10.48 -10.5 -10.52 -10.54 -10.55 -10.57 -10.6 -10.64 -10.67 -10.68 -10.68 -10.69 -10.7 -10.72 -10.73 -10.74 -10.74 -10.72 -10.71 -10.72 -10.75 -10.81 -10.9 -11 -11.11 -12.75 -18.13 -24.39 -28.09 -28.83 -29.17 -29.5 -29.78 -29.99 -28.49 -26.59 -26.12 -30.46 -38.01 -44.92 -48.03 -49.17 -49.38 -47.26 -40.72 -33.12 -31.04 -36.14 -41.66 -43.62 -42.43 -38.44 -31.92 -27.99 -27.47 -27.47 -27.46 -27.46 -27.45 -27.4 -27.34 -27.17 -27.15 -27.14 -26.88 -26.87 -26.86 -27.24 -27.26 -27.3 -27.32 -27.32 -27.28 -27.21 -27.11 -26.95 -26.72 -26.46 -26.29 -26.27 -26.35 -26.21 -26.2 -25.25 -23.33 -21.02 -18.55 -16.45 -14.56 -12.7 -11.63 -11.32 -11.13 -11.05 -10.96 -10.87 -10.79 -10.72 -10.67 -10.64 -10.63 -10.66 -10.69 -10.72 -10.75 -10.77 -10.78 -10.8 -10.82 -10.84 -10.85 -10.87 -10.89 -10.9 -10.92 -10.95 -10.98 -11 -11 -11 -11 -11.03 -11.07 -11.13 -11.2 -11.25 -11.29 -11.3 -11.29 -11.28 -11.26 -11.23 -11.19 -11.16 -11.13 -11.12 -11.1 -11.08 -11.05 -11.04 -11.03 -11.02 -11.02 -11.03 -11.05 -11.07 -11.09 -11.13 -11.16 -11.19 -11.21 -11.23 -11.25 -11.27 -11.3 -11.34 -11.36 -11.38 -11.4 -11.43 -11.46 -11.48 -11.48 -11.47 -11.45 -11.42 -11.39 -11.36 -11.35 -11.34 -11.34 -11.33 -11.32 -11.32 -11.33 -11.34 -11.34 -11.33 -11.3 -11.27 -11.23 -11.2 -11.17 -11.15 -11.13 -11.12 -11.14 -11.17 -11.2 -11.23 -11.23 -11.24 -11.26 -11.28 -11.31 -11.34 -11.36 -11.37 -11.39 -11.43 -11.48 -11.53 -11.57 -11.6 -11.62 -11.64 -11.65 -11.65 -11.67 -11.71 -11.75 -11.78 -11.8 -11.8 -11.81 -11.82 -11.83 -11.85 -11.88 -11.92 -11.99 -12.06 -12.15 -12.24 -12.34 -12.44 -12.54 -12.63 -12.7 -12.73 -12.75 -12.79 -12.84 -12.88 -12.93 -12.98 -13.01 -13.04 -13.06 -13.06 -13.05 -13.06 -13.13 -13.31 -13.58 -13.92 -14.25 -14.51 -14.67 -16.12 -19.85 -24.26 -25.69 -22.63 -19.88 -21.71 -22.57 -18.86 -15.21 -13.71 -13.62 -13.66 -13.74 -13.83 -13.93 -14.04 -14.1 -14.11 -14.1 -14.1 -14.1 -14.07 -14.04 -14.01 -14 -14.25 -14.24 -14.25 -14.4 -14.48 -14.61 -14.76 -14.91 -15.07 -15.93 -17.24 -18.69 -20.65 -23.54 -26.74 -28.96 -27.47 -21.31 -16.99
-10.72 -10.71 -10.7 -10.68 -10.67 -10.65 -10.64 -10.64 -10.66 -10.67 -10.67 -10.67 -10.67 -10.66 -10.65 -10.63 -10.61 -10.58 -10.55 -10.53 -10.51 -10.51 -10.52 -10.53 -10.54 -10.55 -10.56 -10.6 -10.67 -10.74 -10.81 -10.88 -10.94 -11.01 -11.08 -11.15 -11.22 -11.28 -11.31 -11.32 -11.31 -11.28 -11.23 -11.17 -11.1 -11.03 -10.97 -10.94 -10.93 -10.93 -10.96 -10.99 -11.04 -11.1 -11.17 -11.25 -11.33 -11.41 -11.49 -11.57 -11.61 -11.64 -11.64 -11.62 -11.58 -11.51 -11.39 -11.22 -11.04 -10.91 -10.87 -10.86 -10.83 -10.79 -10.75 -10.72 -10.69 -10.67 -10.67 -10.66 -10.64 -10.61 -10.59 -10.57 -10.56 -10.54 -10.53 -10.5 -10.47 -10.44 -10.44 -10.43 -10.42 -10.41 -10.41 -10.42 -10.42 -10.42 -10.42 -10.43 -10.45 -10.48 -10.51 -10.53 -10.55 -10.55 -10.53 -10.51 -10.48 -10.46 -10.46 -10.48 -10.51 -10.54 -10.55 -10.53 -10.5 -10.46 -10.42 -10.41 -10.43 -10.45 -10.48 -10.49 -10.49 -10.49 -10.51 -10.54 -10.6 -10.65 -10.69 -10.71 -10.73 -10.73 -10.72 -10.71 -10.68 -10.64 -10.59 -10.57 -10.57 -10.59 -10.6 -10.6 -10.58 -10.55 -10.51 -10.48 -10.46 -10.45 -10.43 -10.42 -10.41 -10.39 -10.39 -10.38 -10.38 -10.38 -10.39 -10.4 -10.43 -10.47 -10.5 -10.52 -10.55 -10.58 -10.61 -10.63 -10.65 -10.67 -10.71 -10.73 -10.74 -10.74 -10.74 -10.76 -10.78 -10.79 -10.8 -10.78 -10.76 -10.73 -10.72 -10.74 -10.8 -10.91 -11.03 -11.15 -11.7 -15.26 -21.58 -26.75 -29.05 -29.35 -29.64 -29.48 -28.05 -24.24 -20.45 -21.33 -27.54 -36.5 -42.24 -43.92 -43.87 -43.26 -40.7 -35.01 -29.41 -29.39 -35.84 -43.82 -46.09 -43.47 -38 -31.53 -27.66 -27.18 -27.21 -27.11 -27.15 -27.18 -26.92 -26.55 -25.96 -25.61 -24.92 -23.78 -23.06 -24.02 -25.68 -26.71 -26.98 -27.11 -27.1 -27.07 -27.02 -26.94 -26.81 -26.61 -26.37 -26.2 -26.19 -26.29 -26.45 -26.61 -26.72 -26.38 -25.66 -24.14 -22.45 -20.36 -17.54 -15.14 -13.27 -11.97 -11.3 -11.21 -11 -10.93 -10.87 -10.82 -10.78 -10.77 -10.79 -10.82 -10.83 -10.84 -10.86 -10.87 -10.88 -10.89 -10.89 -10.9 -10.91 -10.93 -10.95 -10.97 -10.99 -11.02 -11.05 -11.06 -11.05 -11.05 -11.07 -11.12 -11.17 -11.23 -11.26 -11.29 -11.28 -11.26 -11.24 -11.22 -11.2 -11.16 -11.13 -11.11 -11.1 -11.09 -11.07 -11.05 -11.04 -11.03 -11.03 -11.03 -11.04 -11.05 -11.08 -11.1 -11.13 -11.16 -11.19 -11.21 -11.23 -11.26 -11.28 -11.31 -11.35 -11.37 -11.39 -11.41 -11.44 -11.47 -11.49 -11.49 -11.47 -11.45 -11.42 -11.39 -11.36 -11.34 -11.34 -11.33 -11.31 -11.3 -11.3 -11.3 -11.31 -11.32 -11.3 -11.28 -11.24 -11.21 -11.18 -11.16 -11.13 -11.11 -11.1 -11.12 -11.15 -11.18 -11.19 -11.2 -11.2 -11.21 -11.23 -11.26 -11.29 -11.31 -11.33 -11.36 -11.41 -11.48 -11.55 -11.61 -11.65 -11.69 -11.71 -11.73 -11.73 -11.75 -11.77 -11.81 -11.84 -11.86 -11.87 -11.88 -11.89 -11.9 -11.92 -11.95 -11.99 -12.05 -12.12 -12.2 -12.28 -12.37 -12.47 -12.57 -12.67 -12.74 -12.79 -12.83 -12.88 -12.92 -12.95 -12.99 -13.02 -13.04 -13.06 -13.09 -13.12 -13.16 -13.22 -13.32 -13.48 -13.74 -14.05 -14.34 -14.56 -14.71 -14.76 -16.54 -20.22 -23.94 -24.73 -23.94 -23.99 -21.46 -17 -14.27 -13.78 -13.64 -13.62 -13.67 -13.72 -13.78 -13.83 -13.88 -13.92 -13.96 -14 -14.02 -14.02 -14 -13.99 -13.98 -13.97 -13.97 -13.96 -13.96 -13.99 -14.06 -14.14 -14.23 -14.35 -14.5 -14.92 -15.1 -16.1 -18.14 -21.26 -25.39 -26.62 -22.96 -17.91
-10.74 -10.72 -10.71 -10.69 -10.67 -10.66 -10.65 -10.66 -10.67 -10.69 -10.69 -10.69 -10.68 -10.67 -10.65 -10.63 -10.6 -10.58 -10.56 -10.54 -10.53 -10.53 -10.55 -10.57 -10.58 -10.59 -10.6 -10.64 -10.7 -10.76 -10.83 -10.89 -10.94 -11.01 -11.08 -11.16 -11.23 -11.29 -11.33 -11.34 -11.34 -11.31 -11.26 -11.2 -11.13 -11.07 -11.01 -10.98 -10.96 -10.97 -10.99 -11.02 -11.07 -11.14 -11.21 -11.29 -11.38 -11.47 -11.56 -11.64 -11.68 -11.7 -11.7 -11.68 -11.63 -11.55 -11.43 -11.26 -11.08 -10.96 -10.91 -10.9 -10.87 -10.83 -10.78 -10.74 -10.71 -10.69 -10.69 -10.68 -10.67 -10.65 -10.64 -10.63 -10.62 -10.6 -10.59 -10.57 -10.54 -10.52 -10.51 -10.5 -10.48 -10.47 -10.46 -10.46 -10.46 -10.45 -10.45 -10.46 -10.48 -10.51 -10.53 -10.53 -10.52 -10.5 -10.47 -10.44 -10.42 -10.41 -10.41 -10.43 -10.45 -10.47 -10.49 -10.5 -10.49 -10.47 -10.46 -10.45 -10.47 -10.5 -10.52 -10.53 -10.54 -10.55 -10.57 -10.6 -10.65 -10.7 -10.73 -10.75 -10.75 -10.75 -10.74 -10.73 -10.7 -10.65 -10.61 -10.58 -10.59 -10.61 -10.63 -10.64 -10.63 -10.6 -10.56 -10.52 -10.5 -10.48 -10.46 -10.45 -10.43 -10.42 -10.41 -10.4 -10.4 -10.4 -10.41 -10.43 -10.46 -10.5 -10.53 -10.57 -10.6 -10.64 -10.67 -10.69 -10.71 -10.73 -10.76 -10.77 -10.77 -10.76 -10.77 -10.79 -10.82 -10.84 -10.85 -10.83 -10.8 -10.77 -10.74 -10.75 -10.82 -10.93 -11.06 -11.2 -11.34 -13.07 -17.48 -23.17 -27.68 -29.09 -28.16 -26 -23.02 -19.27 -17.66 -19.84 -25.63 -31.03 -33.66 -33.6 -33.55 -33.5 -31.92 -29.36 -27.23 -27.73 -32.19 -38.02 -39.29 -35.62 -31.67 -28.08 -26.7 -26.54 -26.26 -25.76 -25.5 -24.87 -23.65 -22.41 -21.47 -20.65 -19.39 -17.5 -16.69 -18.05 -20.77 -23.11 -24.94 -26.18 -26.5 -26.73 -26.82 -26.76 -26.66 -26.48 -26.27 -26.11 -26.12 -26.24 -26.43 -26.63 -26.78 -26.85 -26.83 -26.5 -26.28 -25.17 -23.19 -20.9 -18.46 -15.7 -13.7 -12.48 -11.86 -11.45 -11.41 -11.12 -10.97 -10.96 -10.98 -10.98 -10.98 -10.98 -10.99 -10.99 -10.98 -10.98 -10.98 -10.99 -11 -11.02 -11.03 -11.05 -11.08 -11.1 -11.12 -11.12 -11.12 -11.12 -11.14 -11.17 -11.21 -11.24 -11.27 -11.26 -11.24 -11.21 -11.19 -11.17 -11.15 -11.13 -11.11 -11.09 -11.08 -11.07 -11.06 -11.04 -11.04 -11.03 -11.03 -11.03 -11.04 -11.06 -11.08 -11.11 -11.14 -11.16 -11.19 -11.22 -11.24 -11.27 -11.3 -11.33 -11.36 -11.39 -11.41 -11.42 -11.45 -11.47 -11.48 -11.48 -11.46 -11.44 -11.41 -11.38 -11.36 -11.34 -11.34 -11.33 -11.31 -11.29 -11.28 -11.29 -11.3 -11.3 -11.28 -11.26 -11.23 -11.2 -11.17 -11.14 -11.11 -11.09 -11.09 -11.1 -11.12 -11.14 -11.16 -11.17 -11.17 -11.17 -11.2 -11.23 -11.26 -11.29 -11.32 -11.36 -11.43 -11.51 -11.58 -11.65 -11.71 -11.75 -11.78 -11.8 -11.81 -11.82 -11.84 -11.87 -11.89 -11.92 -11.94 -11.95 -11.96 -11.97 -11.99 -12.02 -12.06 -12.12 -12.17 -12.23 -12.31 -12.39 -12.48 -12.59 -12.69 -12.77 -12.82 -12.87 -12.93 -12.97 -13 -13.03 -13.05 -13.06 -13.09 -13.13 -13.19 -13.27 -13.36 -13.49 -13.67 -13.9 -14.17 -14.42 -14.62 -14.74 -14.8 -14.94 -17.13 -21.82 -25.8 -27.21 -24.7 -19.7 -15.38 -14.11 -13.88 -13.7 -13.63 -13.62 -13.62 -13.62 -13.64 -13.67 -13.73 -13.8 -13.87 -13.92 -13.94 -13.95 -13.96 -13.96 -13.96 -13.96 -13.95 -13.93 -13.91 -13.91 -13.93 -13.98 -14.05 -14.14 -14.28 -14.44 -14.67 -15.18 -16.95 -20.34 -23.72 -22.23 -18.39
-10.75 -10.74 -10.72 -10.71 -10.69 -10.68 -10.67 -10.67 -10.68 -10.69 -10.69 -10.69 -10.68 -10.66 -10.63 -10.61 -10.58 -10.57 -10.55 -10.54 -10.53 -10.54 -10.57 -10.6 -10.62 -10.63 -10.65 -10.68 -10.73 -10.79 -10.85 -10.91 -10.97 -11.03 -11.1 -11.17 -11.24 -11.3 -11.33 -11.35 -11.34 -11.32 -11.27 -11.21 -11.15 -11.09 -11.04 -11 -10.98 -10.98 -11 -11.03 -11.08 -11.15 -11.23 -11.31 -11.4 -11.51 -11.6 -11.68 -11.72 -11.73 -11.74 -11.72 -11.66 -11.57 -11.45 -11.3 -11.14 -11.01 -10.95 -10.93 -10.9 -10.86 -10.81 -10.77 -10.74 -10.72 -10.71 -10.71 -10.7 -10.7 -10.7 -10.69 -10.68 -10.66 -10.65 -10.64 -10.62 -10.6 -10.59 -10.57 -10.55 -10.53 -10.51 -10.51 -10.5 -10.49 -10.49 -10.5 -10.52 -10.54 -10.55 -10.53 -10.49 -10.44 -10.39 -10.35 -10.34 -10.35 -10.35 -10.35 -10.37 -10.39 -10.42 -10.46 -10.48 -10.49 -10.5 -10.51 -10.53 -10.55 -10.56 -10.58 -10.59 -10.61 -10.63 -10.66 -10.7 -10.74 -10.76 -10.77 -10.77 -10.76 -10.76 -10.74 -10.71 -10.67 -10.63 -10.6 -10.6 -10.63 -10.66 -10.68 -10.67 -10.64 -10.61 -10.56 -10.53 -10.5 -10.49 -10.47 -10.46 -10.45 -10.44 -10.43 -10.43 -10.43 -10.44 -10.46 -10.49 -10.53 -10.57 -10.61 -10.65 -10.69 -10.72 -10.74 -10.75 -10.76 -10.78 -10.78 -10.76 -10.75 -10.76 -10.79 -10.84 -10.87 -10.88 -10.88 -10.86 -10.82 -10.78 -10.79 -10.86 -10.98 -11.13 -11.28 -11.44 -11.63 -13.86 -19.08 -24.35 -25.27 -22.76 -19.7 -17.25 -17.2 -19.4 -23.67 -26.43 -28.08 -28 -27.93 -27.87 -27.82 -27.76 -27.14 -27.07 -27 -28.39 -31.11 -30.66 -28.07 -26.27 -25.25 -24.35 -23.2 -22.04 -21.19 -20.46 -19.27 -17.46 -16.01 -15.19 -14.83 -14.11 -12.92 -12.16 -13.12 -15 -17.24 -19.64 -21.69 -23.17 -24.74 -25.95 -26.23 -26.39 -26.38 -26.19 -26.06 -26.07 -26.21 -26.43 -26.65 -26.83 -26.91 -26.9 -26.82 -26.71 -26.61 -26.19 -25.48 -23.75 -21.35 -19 -17.27 -16.04 -15.43 -14.59 -13.12 -11.88 -11.54 -11.55 -11.29 -11.16 -11.15 -11.14 -11.13 -11.11 -11.1 -11.1 -11.1 -11.11 -11.12 -11.13 -11.15 -11.18 -11.2 -11.21 -11.2 -11.2 -11.2 -11.21 -11.22 -11.24 -11.26 -11.26 -11.23 -11.19 -11.16 -11.13 -11.11 -11.1 -11.09 -11.09 -11.08 -11.07 -11.06 -11.05 -11.04 -11.03 -11.03 -11.02 -11.03 -11.04 -11.07 -11.09 -11.12 -11.14 -11.16 -11.19 -11.22 -11.25 -11.29 -11.32 -11.36 -11.38 -11.41 -11.42 -11.43 -11.45 -11.46 -11.46 -11.46 -11.44 -11.42 -11.39 -11.37 -11.35 -11.34 -11.34 -11.33 -11.32 -11.3 -11.28 -11.28 -11.28 -11.28 -11.26 -11.24 -11.22 -11.19 -11.15 -11.12 -11.09 -11.07 -11.06 -11.06 -11.08 -11.1 -11.12 -11.14 -11.15 -11.16 -11.19 -11.22 -11.26 -11.31 -11.35 -11.4 -11.48 -11.56 -11.64 -11.7 -11.77 -11.81 -11.85 -11.86 -11.87 -11.89 -11.91 -11.93 -11.95 -11.97 -11.99 -12 -12.01 -12.03 -12.06 -12.09 -12.13 -12.17 -12.21 -12.26 -12.32 -12.39 -12.48 -12.58 -12.68 -12.75 -12.79 -12.83 -12.89 -12.95 -12.99 -13.03 -13.06 -13.08 -13.12 -13.18 -13.26 -13.35 -13.46 -13.62 -13.83 -14.07 -14.3 -14.51 -14.67 -14.78 -14.83 -14.84 -15.54 -18.77 -23.8 -26.68 -24.55 -18.61 -14.6 -14.2 -13.99 -13.8 -13.68 -13.61 -13.55 -13.51 -13.49 -13.51 -13.56 -13.64 -13.74 -13.81 -13.85 -13.88 -13.89 -13.91 -13.92 -13.93 -13.93 -13.89 -13.85 -13.81 -13.79 -13.8 -13.82 -13.87 -13.97 -14.13 -14.36 -14.64 -14.91 -16.74 -19.05 -19.49 -17.12
