ncols 455
nrows 32
xllcorner 165650
yllcorner 5648900
cellsize 50.0
NODATA_value -9999
-10.68 -10.6 -10.55 -10.51 -10.5 -10.5 -10.5 -10.47 -10.44 -10.41 -10.39 -10.38 -10.37 -10.36 -10.37 -10.38 -10.38 -10.37 -10.35 -10.28 -10.23 -10.21 -10.2 -10.2 -10.18 -10.06 -9.99 -9.9 -9.8 -9.68 -9.55 -9.31 -9.18 -9.05 -8.95 -8.88 -8.86 -8.94 -8.99 -9.05 -9.12 -9.19 -9.39 -9.5 -9.6 -9.7 -9.78 -9.84 -9.84 -9.79 -9.71 -9.63 -9.55 -9.49 -9.4 -9.39 -9.38 -9.39 -9.39 -9.39 -9.39 -9.39 -9.38 -9.37 -9.35 -9.33 -9.28 -9.24 -9.2 -9.16 -9.13 -9.11 -9.1 -9.1 -9.11 -9.12 -9.12 -9.14 -9.22 -9.25 -9.28 -9.31 -9.35 -9.39 -9.44 -9.45 -9.45 -9.46 -9.46 -9.47 -9.48 -9.49 -9.51 -9.54 -9.57 -9.6 -9.61 -9.62 -9.63 -9.64 -9.65 -9.7 -9.74 -9.79 -9.84 -9.89 -9.92 -9.98 -10.01 -10.05 -10.11 -10.16 -10.2 -10.25 -10.27 -10.29 -10.31 -10.35 -10.38 -10.46 -10.5 -10.56 -10.65 -10.76 -10.85 -10.95 -10.97 -10.98 -10.96 -10.94 -10.93 -10.97 -11.0 -11.04 -11.07 -11.11 -11.14 -11.45 -11.62 -11.66 -12.38 -13.54 -14.6 -17.64 -20.44 -22.83 -24.68 -25.93 -26.25 -25.21 -23.5 -22.2 -21.04 -19.15 -17.04 -16.1 -14.83 -13.22 -11.95 -11.58 -11.15 -11.1 -11.06 -11.02 -10.98 -10.94 -10.84 -10.79 -10.75 -10.71 -10.67 -10.62 -10.53 -10.48 -10.43 -10.39 -10.36 -10.34 -10.31 -10.3 -10.29 -10.28 -10.28 -10.29 -10.29 -10.29 -10.29 -10.3 -10.31 -10.32 -10.32 -10.31 -10.3 -10.29 -10.29 -10.28 -10.28 -10.27 -10.27 -10.26 -10.26 -10.25 -10.25 -10.25 -10.27 -10.3 -10.34 -10.44 -10.49 -10.53 -10.56 -10.58 -10.59 -10.59 -10.59 -10.56 -10.52 -10.48 -10.43 -10.36 -10.33 -10.32 -10.31 -10.32 -10.33 -10.37 -10.36 -10.34 -10.32 -10.28 -10.26 -10.22 -10.21 -10.2 -10.19 -10.19 -10.18 -10.15 -10.13 -10.11 -10.1 -10.07 -10.03 -9.85 -9.74 -9.63 -9.54 -9.49 -9.41 -9.33 -9.21 -9.03 -8.85 -8.65 -8.23 -8.04 -7.85 -7.67 -7.52 -7.42 -7.24 -7.09 -6.88 -6.64 -6.39 -6.15 -5.68 -5.42 -5.17 -4.98 -4.84 -4.74 -4.82 -5.08 -5.53 -6.1 -6.73 -7.31 -8.03 -8.2 -8.37 -8.61 -8.86 -9.09 -9.38 -9.45 -9.48 -9.49 -9.53 -9.57 -9.69 -9.75 -9.81 -9.86 -9.9 -9.93 -9.96 -9.98 -9.98 -9.99 -9.99 -10.01 -10.02 -10.05 -10.07 -10.09 -10.1 -10.1 -10.1 -10.08 -10.05 -10.02 -9.97 -9.9 -9.88 -9.86 -9.85 -9.84 -9.84 -9.86 -9.87 -9.88 -9.89 -9.9 -9.92 -9.96 -9.98 -10.01 -10.03 -10.06 -10.09 -10.11 -10.1 -10.09 -10.09 -10.09 -10.1 -10.17 -10.21 -10.23 -10.25 -10.26 -10.26 -10.25 -10.25 -10.26 -10.28 -10.32 -10.43 -10.49 -10.55 -10.59 -10.62 -10.64 -10.68 -10.7 -10.72 -10.74 -10.75 -10.75 -10.73 -10.71 -10.69 -10.68 -10.68 -10.7 -10.77 -10.81 -10.86 -10.92 -10.99 -11.04 -11.13 -11.19 -11.26 -11.34 -11.42 -11.48 -11.53 -11.55 -11.56 -11.59 -11.63 -11.71 -11.92 -11.99 -12.03 -12.03 -12.01 -11.95 -11.83 -11.76 -11.69 -11.61 -11.51 -11.42 -11.29 -11.28 -11.28 -11.29 -11.31 -11.34 -11.33 -11.31 -11.29 -11.27 -11.27 -11.38 -11.5 -11.64 -11.77 -11.87 -11.96 -12.07 -12.11 -12.14 -12.17 -12.17 -12.15 -12.09 -12.07 -12.05 -12.05 -12.06 -12.1 -12.23 -12.31 -12.38 -12.42 -12.46 -12.51 -12.64 -12.72 -12.78 -12.82 -12.85 -12.89 -12.99 -13.02 -13.04 -13.05 -13.05 -13.04 -13.0 -12.99 -12.98 -12.97 -12.94 -12.91 -12.85 -12.82 -12.76 -12.69 -12.62 -12.56
-10.64 -10.54 -10.49 -10.46 -10.44 -10.44 -10.44 -10.41 -10.38 -10.35 -10.33 -10.33 -10.33 -10.32 -10.33 -10.34 -10.34 -10.34 -10.33 -10.28 -10.24 -10.21 -10.19 -10.18 -10.15 -10.05 -9.98 -9.9 -9.8 -9.67 -9.54 -9.29 -9.17 -9.06 -8.96 -8.91 -8.89 -8.95 -9.0 -9.05 -9.12 -9.2 -9.38 -9.48 -9.58 -9.67 -9.74 -9.8 -9.79 -9.73 -9.65 -9.58 -9.5 -9.44 -9.37 -9.36 -9.36 -9.36 -9.37 -9.37 -9.38 -9.38 -9.37 -9.36 -9.35 -9.33 -9.28 -9.24 -9.2 -9.16 -9.12 -9.09 -9.06 -9.07 -9.09 -9.09 -9.09 -9.1 -9.18 -9.22 -9.26 -9.29 -9.33 -9.36 -9.4 -9.41 -9.43 -9.45 -9.46 -9.47 -9.5 -9.51 -9.54 -9.56 -9.57 -9.6 -9.61 -9.61 -9.62 -9.62 -9.63 -9.66 -9.7 -9.76 -9.82 -9.87 -9.92 -9.99 -10.01 -10.05 -10.09 -10.13 -10.17 -10.24 -10.27 -10.3 -10.34 -10.39 -10.43 -10.5 -10.55 -10.6 -10.66 -10.73 -10.79 -10.86 -10.88 -10.88 -10.88 -10.87 -10.87 -10.91 -10.94 -10.98 -11.02 -11.06 -11.09 -11.16 -11.2 -11.25 -11.31 -11.61 -11.68 -12.92 -14.89 -17.19 -19.61 -21.66 -25.27 -26.26 -26.23 -26.19 -25.47 -24.31 -23.24 -22.41 -20.8 -18.37 -16.31 -14.81 -11.92 -11.54 -11.13 -11.11 -11.07 -11.02 -10.91 -10.86 -10.81 -10.76 -10.7 -10.66 -10.57 -10.51 -10.46 -10.42 -10.39 -10.37 -10.33 -10.32 -10.31 -10.3 -10.3 -10.31 -10.31 -10.31 -10.31 -10.32 -10.32 -10.33 -10.33 -10.32 -10.32 -10.31 -10.3 -10.29 -10.28 -10.28 -10.28 -10.28 -10.27 -10.26 -10.26 -10.27 -10.29 -10.32 -10.36 -10.46 -10.51 -10.56 -10.6 -10.62 -10.63 -10.61 -10.59 -10.57 -10.53 -10.49 -10.44 -10.37 -10.35 -10.33 -10.31 -10.3 -10.31 -10.35 -10.35 -10.34 -10.33 -10.31 -10.29 -10.26 -10.25 -10.25 -10.26 -10.26 -10.26 -10.25 -10.24 -10.22 -10.2 -10.17 -10.13 -9.98 -9.87 -9.76 -9.66 -9.58 -9.44 -9.34 -9.2 -9.04 -8.86 -8.69 -8.3 -8.1 -7.9 -7.71 -7.56 -7.45 -7.23 -7.08 -6.91 -6.7 -6.47 -6.21 -5.74 -5.54 -5.34 -5.14 -4.95 -4.8 -4.77 -4.96 -5.35 -5.91 -6.52 -7.1 -7.93 -8.17 -8.36 -8.57 -8.8 -9.01 -9.34 -9.42 -9.44 -9.46 -9.5 -9.54 -9.65 -9.71 -9.76 -9.82 -9.86 -9.89 -9.94 -9.96 -9.97 -9.98 -9.98 -9.99 -10.0 -10.01 -10.03 -10.04 -10.06 -10.08 -10.08 -10.07 -10.05 -10.01 -9.97 -9.89 -9.87 -9.86 -9.85 -9.85 -9.85 -9.87 -9.88 -9.89 -9.9 -9.91 -9.92 -9.96 -9.99 -10.01 -10.04 -10.07 -10.09 -10.1 -10.08 -10.06 -10.05 -10.05 -10.06 -10.14 -10.18 -10.2 -10.22 -10.23 -10.24 -10.23 -10.22 -10.23 -10.26 -10.3 -10.42 -10.48 -10.54 -10.58 -10.62 -10.64 -10.67 -10.69 -10.71 -10.74 -10.75 -10.75 -10.73 -10.72 -10.7 -10.68 -10.68 -10.7 -10.77 -10.81 -10.85 -10.91 -10.97 -11.03 -11.13 -11.18 -11.25 -11.33 -11.42 -11.47 -11.52 -11.54 -11.56 -11.59 -11.64 -11.71 -11.9 -11.98 -12.03 -12.04 -12.02 -11.96 -11.81 -11.75 -11.69 -11.62 -11.53 -11.44 -11.32 -11.3 -11.31 -11.33 -11.35 -11.36 -11.35 -11.32 -11.29 -11.28 -11.28 -11.42 -11.55 -11.69 -11.81 -11.9 -11.98 -12.09 -12.13 -12.16 -12.17 -12.17 -12.15 -12.1 -12.08 -12.07 -12.07 -12.08 -12.11 -12.23 -12.3 -12.37 -12.43 -12.48 -12.54 -12.68 -12.75 -12.81 -12.86 -12.9 -12.94 -13.03 -13.07 -13.09 -13.11 -13.12 -13.12 -13.08 -13.06 -13.04 -13.02 -12.98 -12.94 -12.87 -12.84 -12.79 -12.73 -12.67 -12.6
-10.61 -10.5 -10.45 -10.42 -10.4 -10.39 -10.39 -10.35 -10.32 -10.29 -10.27 -10.28 -10.28 -10.26 -10.28 -10.29 -10.3 -10.3 -10.3 -10.28 -10.26 -10.24 -10.21 -10.17 -10.13 -10.04 -9.97 -9.89 -9.8 -9.69 -9.56 -9.29 -9.18 -9.09 -9.01 -8.97 -8.95 -8.99 -9.02 -9.06 -9.13 -9.21 -9.38 -9.47 -9.56 -9.64 -9.71 -9.76 -9.74 -9.68 -9.6 -9.53 -9.46 -9.4 -9.33 -9.33 -9.33 -9.34 -9.35 -9.36 -9.37 -9.37 -9.36 -9.35 -9.34 -9.32 -9.28 -9.24 -9.2 -9.16 -9.12 -9.08 -9.04 -9.05 -9.06 -9.07 -9.07 -9.07 -9.16 -9.21 -9.24 -9.28 -9.31 -9.34 -9.36 -9.38 -9.41 -9.44 -9.46 -9.48 -9.51 -9.54 -9.56 -9.58 -9.58 -9.6 -9.61 -9.61 -9.61 -9.61 -9.61 -9.63 -9.67 -9.73 -9.8 -9.86 -9.91 -9.99 -10.02 -10.05 -10.07 -10.1 -10.15 -10.24 -10.28 -10.33 -10.38 -10.43 -10.49 -10.56 -10.6 -10.63 -10.67 -10.71 -10.74 -10.78 -10.79 -10.79 -10.79 -10.8 -10.81 -10.86 -10.89 -10.93 -10.96 -11.0 -11.03 -11.11 -11.16 -11.21 -11.27 -11.35 -11.42 -11.55 -11.97 -12.69 -14.17 -15.8 -20.56 -23.23 -25.24 -26.22 -26.43 -26.26 -26.21 -26.06 -25.36 -23.89 -22.39 -20.79 -16.29 -14.43 -12.6 -11.57 -11.16 -11.1 -10.99 -10.93 -10.88 -10.81 -10.75 -10.7 -10.6 -10.54 -10.49 -10.45 -10.42 -10.39 -10.35 -10.34 -10.33 -10.32 -10.33 -10.33 -10.34 -10.34 -10.33 -10.33 -10.33 -10.34 -10.34 -10.33 -10.33 -10.32 -10.32 -10.3 -10.29 -10.29 -10.29 -10.29 -10.28 -10.28 -10.28 -10.29 -10.31 -10.34 -10.38 -10.48 -10.54 -10.59 -10.63 -10.65 -10.66 -10.62 -10.59 -10.57 -10.54 -10.5 -10.46 -10.4 -10.38 -10.35 -10.32 -10.3 -10.3 -10.33 -10.34 -10.34 -10.33 -10.32 -10.31 -10.29 -10.29 -10.3 -10.32 -10.33 -10.33 -10.34 -10.34 -10.32 -10.3 -10.28 -10.24 -10.08 -9.97 -9.87 -9.77 -9.66 -9.45 -9.34 -9.2 -9.05 -8.89 -8.73 -8.38 -8.17 -7.95 -7.75 -7.6 -7.49 -7.25 -7.1 -6.94 -6.76 -6.53 -6.27 -5.82 -5.67 -5.51 -5.3 -5.06 -4.87 -4.74 -4.87 -5.2 -5.7 -6.3 -6.9 -7.86 -8.15 -8.37 -8.57 -8.76 -8.95 -9.29 -9.37 -9.41 -9.43 -9.47 -9.51 -9.61 -9.65 -9.7 -9.76 -9.81 -9.85 -9.91 -9.94 -9.95 -9.96 -9.97 -9.97 -9.98 -9.98 -9.99 -10.0 -10.02 -10.05 -10.05 -10.05 -10.04 -10.01 -9.96 -9.89 -9.86 -9.85 -9.85 -9.85 -9.85 -9.88 -9.89 -9.89 -9.9 -9.91 -9.92 -9.96 -9.99 -10.02 -10.05 -10.08 -10.1 -10.09 -10.06 -10.03 -10.01 -10.01 -10.03 -10.11 -10.14 -10.16 -10.18 -10.2 -10.2 -10.2 -10.2 -10.21 -10.23 -10.28 -10.4 -10.46 -10.52 -10.57 -10.61 -10.64 -10.66 -10.68 -10.7 -10.73 -10.75 -10.75 -10.74 -10.72 -10.7 -10.68 -10.68 -10.7 -10.76 -10.8 -10.85 -10.9 -10.96 -11.02 -11.12 -11.17 -11.23 -11.31 -11.4 -11.45 -11.5 -11.52 -11.55 -11.59 -11.64 -11.71 -11.88 -11.97 -12.02 -12.04 -12.02 -11.96 -11.8 -11.73 -11.68 -11.62 -11.54 -11.45 -11.34 -11.33 -11.34 -11.37 -11.39 -11.39 -11.36 -11.33 -11.3 -11.29 -11.3 -11.46 -11.6 -11.73 -11.84 -11.93 -12.0 -12.11 -12.15 -12.17 -12.18 -12.18 -12.16 -12.11 -12.1 -12.09 -12.1 -12.11 -12.13 -12.23 -12.3 -12.38 -12.44 -12.51 -12.57 -12.72 -12.78 -12.84 -12.9 -12.94 -12.98 -13.07 -13.11 -13.14 -13.17 -13.18 -13.19 -13.17 -13.14 -13.11 -13.07 -13.02 -12.98 -12.9 -12.86 -12.82 -12.77 -12.72 -12.64
-10.57 -10.46 -10.42 -10.39 -10.37 -10.36 -10.35 -10.3 -10.26 -10.23 -10.22 -10.22 -10.22 -10.21 -10.23 -10.25 -10.26 -10.26 -10.27 -10.26 -10.26 -10.25 -10.22 -10.17 -10.12 -10.02 -9.96 -9.89 -9.8 -9.71 -9.59 -9.33 -9.22 -9.14 -9.09 -9.05 -9.04 -9.04 -9.06 -9.09 -9.14 -9.21 -9.38 -9.47 -9.56 -9.63 -9.69 -9.73 -9.69 -9.63 -9.56 -9.48 -9.41 -9.36 -9.31 -9.31 -9.31 -9.32 -9.33 -9.34 -9.35 -9.35 -9.34 -9.33 -9.32 -9.3 -9.26 -9.24 -9.2 -9.16 -9.12 -9.08 -9.03 -9.03 -9.05 -9.06 -9.06 -9.06 -9.15 -9.19 -9.23 -9.26 -9.29 -9.32 -9.35 -9.37 -9.4 -9.44 -9.47 -9.49 -9.54 -9.57 -9.59 -9.6 -9.6 -9.61 -9.61 -9.61 -9.61 -9.61 -9.61 -9.62 -9.65 -9.71 -9.79 -9.86 -9.91 -10.0 -10.03 -10.05 -10.07 -10.1 -10.14 -10.25 -10.3 -10.35 -10.41 -10.48 -10.54 -10.61 -10.63 -10.66 -10.67 -10.68 -10.69 -10.7 -10.71 -10.71 -10.72 -10.74 -10.76 -10.81 -10.85 -10.89 -10.92 -10.95 -10.98 -11.07 -11.12 -11.17 -11.23 -11.32 -11.41 -11.56 -11.61 -11.65 -11.93 -12.08 -15.13 -17.8 -20.53 -22.84 -24.63 -25.83 -26.12 -26.1 -26.33 -26.19 -26.05 -25.36 -22.23 -20.19 -17.41 -14.7 -12.63 -11.2 -11.08 -11.01 -10.94 -10.87 -10.8 -10.74 -10.62 -10.56 -10.51 -10.47 -10.45 -10.42 -10.37 -10.36 -10.35 -10.35 -10.35 -10.35 -10.36 -10.36 -10.35 -10.35 -10.34 -10.34 -10.34 -10.34 -10.33 -10.33 -10.32 -10.31 -10.3 -10.3 -10.3 -10.3 -10.3 -10.31 -10.32 -10.33 -10.34 -10.36 -10.4 -10.49 -10.55 -10.61 -10.65 -10.68 -10.68 -10.63 -10.6 -10.57 -10.54 -10.51 -10.48 -10.44 -10.42 -10.38 -10.35 -10.32 -10.31 -10.32 -10.33 -10.33 -10.33 -10.33 -10.33 -10.31 -10.32 -10.33 -10.35 -10.38 -10.39 -10.42 -10.42 -10.41 -10.39 -10.37 -10.32 -10.15 -10.04 -9.94 -9.84 -9.72 -9.46 -9.34 -9.21 -9.08 -8.93 -8.77 -8.45 -8.23 -8.02 -7.82 -7.66 -7.55 -7.31 -7.15 -6.99 -6.8 -6.58 -6.34 -5.94 -5.81 -5.65 -5.42 -5.16 -4.94 -4.73 -4.8 -5.05 -5.49 -6.07 -6.7 -7.79 -8.13 -8.37 -8.57 -8.74 -8.91 -9.24 -9.33 -9.37 -9.4 -9.43 -9.48 -9.56 -9.61 -9.65 -9.7 -9.75 -9.8 -9.88 -9.91 -9.93 -9.95 -9.96 -9.96 -9.96 -9.96 -9.96 -9.97 -9.98 -10.02 -10.03 -10.03 -10.02 -10.0 -9.96 -9.88 -9.86 -9.85 -9.84 -9.85 -9.85 -9.88 -9.89 -9.9 -9.91 -9.92 -9.93 -9.96 -9.99 -10.02 -10.06 -10.1 -10.11 -10.08 -10.05 -10.01 -9.99 -9.99 -10.01 -10.07 -10.1 -10.13 -10.14 -10.16 -10.17 -10.18 -10.18 -10.19 -10.22 -10.26 -10.39 -10.45 -10.51 -10.55 -10.59 -10.63 -10.65 -10.67 -10.69 -10.72 -10.74 -10.75 -10.74 -10.73 -10.71 -10.69 -10.68 -10.7 -10.75 -10.8 -10.85 -10.9 -10.95 -11.01 -11.11 -11.16 -11.22 -11.3 -11.38 -11.42 -11.47 -11.5 -11.53 -11.57 -11.63 -11.7 -11.86 -11.94 -11.99 -12.01 -12.0 -11.95 -11.8 -11.72 -11.66 -11.61 -11.54 -11.47 -11.37 -11.37 -11.39 -11.42 -11.44 -11.42 -11.39 -11.36 -11.34 -11.32 -11.34 -11.52 -11.65 -11.77 -11.87 -11.95 -12.02 -12.13 -12.16 -12.19 -12.2 -12.19 -12.17 -12.14 -12.13 -12.13 -12.13 -12.13 -12.14 -12.23 -12.31 -12.38 -12.45 -12.53 -12.61 -12.76 -12.82 -12.87 -12.93 -12.98 -13.03 -13.09 -13.13 -13.17 -13.2 -13.23 -13.25 -13.25 -13.22 -13.17 -13.12 -13.08 -13.03 -12.93 -12.89 -12.85 -12.8 -12.76 -12.67
-10.53 -10.42 -10.39 -10.36 -10.34 -10.33 -10.31 -10.25 -10.21 -10.18 -10.16 -10.16 -10.16 -10.16 -10.18 -10.21 -10.22 -10.23 -10.23 -10.23 -10.23 -10.23 -10.22 -10.18 -10.13 -10.0 -9.94 -9.88 -9.8 -9.72 -9.61 -9.37 -9.27 -9.2 -9.16 -9.14 -9.12 -9.11 -9.12 -9.13 -9.16 -9.21 -9.38 -9.48 -9.56 -9.63 -9.69 -9.71 -9.65 -9.59 -9.52 -9.44 -9.37 -9.32 -9.28 -9.28 -9.29 -9.31 -9.32 -9.33 -9.34 -9.33 -9.31 -9.3 -9.29 -9.27 -9.25 -9.23 -9.2 -9.17 -9.13 -9.08 -9.04 -9.03 -9.04 -9.05 -9.05 -9.06 -9.14 -9.18 -9.21 -9.24 -9.28 -9.3 -9.34 -9.36 -9.4 -9.44 -9.48 -9.5 -9.56 -9.59 -9.61 -9.62 -9.61 -9.62 -9.62 -9.62 -9.61 -9.61 -9.61 -9.62 -9.65 -9.71 -9.77 -9.84 -9.91 -10.0 -10.04 -10.06 -10.08 -10.1 -10.15 -10.27 -10.33 -10.38 -10.44 -10.51 -10.57 -10.64 -10.66 -10.67 -10.67 -10.66 -10.65 -10.63 -10.63 -10.64 -10.66 -10.69 -10.72 -10.78 -10.82 -10.85 -10.89 -10.92 -10.95 -11.03 -11.08 -11.14 -11.21 -11.29 -11.39 -11.55 -11.61 -11.65 -11.69 -11.71 -12.08 -13.08 -14.97 -17.2 -19.56 -21.56 -22.44 -23.1 -24.54 -25.76 -26.09 -26.44 -26.02 -24.98 -22.91 -20.21 -16.42 -13.04 -11.15 -11.07 -11.0 -10.93 -10.86 -10.78 -10.64 -10.58 -10.53 -10.5 -10.47 -10.45 -10.4 -10.39 -10.38 -10.38 -10.38 -10.38 -10.38 -10.38 -10.37 -10.36 -10.35 -10.35 -10.35 -10.34 -10.34 -10.33 -10.33 -10.32 -10.32 -10.31 -10.31 -10.31 -10.32 -10.34 -10.35 -10.36 -10.37 -10.39 -10.42 -10.51 -10.57 -10.63 -10.67 -10.69 -10.69 -10.64 -10.6 -10.57 -10.54 -10.52 -10.51 -10.48 -10.46 -10.42 -10.38 -10.35 -10.32 -10.31 -10.32 -10.32 -10.33 -10.33 -10.33 -10.33 -10.34 -10.36 -10.38 -10.41 -10.44 -10.49 -10.49 -10.48 -10.46 -10.43 -10.37 -10.19 -10.08 -9.98 -9.87 -9.75 -9.48 -9.35 -9.23 -9.11 -8.97 -8.81 -8.49 -8.3 -8.1 -7.93 -7.77 -7.63 -7.37 -7.23 -7.06 -6.86 -6.63 -6.42 -6.05 -5.92 -5.75 -5.5 -5.24 -5.01 -4.72 -4.74 -4.94 -5.29 -5.81 -6.45 -7.65 -8.02 -8.31 -8.52 -8.7 -8.87 -9.19 -9.28 -9.33 -9.37 -9.41 -9.45 -9.53 -9.57 -9.62 -9.67 -9.71 -9.76 -9.85 -9.89 -9.91 -9.93 -9.94 -9.94 -9.94 -9.94 -9.94 -9.94 -9.95 -9.99 -10.01 -10.02 -10.01 -9.99 -9.95 -9.87 -9.85 -9.84 -9.84 -9.85 -9.86 -9.88 -9.89 -9.9 -9.91 -9.92 -9.93 -9.96 -9.99 -10.02 -10.07 -10.1 -10.12 -10.08 -10.03 -9.99 -9.97 -9.97 -9.99 -10.04 -10.07 -10.09 -10.11 -10.12 -10.14 -10.16 -10.17 -10.18 -10.21 -10.25 -10.38 -10.44 -10.49 -10.54 -10.58 -10.61 -10.65 -10.66 -10.69 -10.71 -10.73 -10.74 -10.74 -10.73 -10.71 -10.69 -10.68 -10.69 -10.74 -10.79 -10.84 -10.89 -10.94 -10.99 -11.09 -11.14 -11.21 -11.29 -11.36 -11.38 -11.43 -11.47 -11.5 -11.55 -11.62 -11.69 -11.83 -11.9 -11.95 -11.98 -11.97 -11.93 -11.79 -11.71 -11.66 -11.6 -11.54 -11.47 -11.39 -11.4 -11.42 -11.46 -11.47 -11.46 -11.43 -11.4 -11.38 -11.37 -11.39 -11.58 -11.71 -11.81 -11.89 -11.97 -12.04 -12.14 -12.18 -12.2 -12.22 -12.21 -12.19 -12.16 -12.17 -12.17 -12.17 -12.16 -12.17 -12.24 -12.31 -12.38 -12.46 -12.55 -12.64 -12.79 -12.84 -12.9 -12.96 -13.01 -13.06 -13.12 -13.15 -13.19 -13.22 -13.26 -13.3 -13.32 -13.28 -13.23 -13.19 -13.14 -13.09 -12.99 -12.93 -12.88 -12.84 -12.8 -12.7
-10.41 -10.35 -10.33 -10.32 -10.3 -10.28 -10.25 -10.16 -10.12 -10.09 -10.05 -10.03 -10.02 -10.06 -10.09 -10.13 -10.15 -10.16 -10.16 -10.17 -10.18 -10.19 -10.19 -10.18 -10.14 -9.98 -9.9 -9.83 -9.76 -9.69 -9.61 -9.41 -9.34 -9.29 -9.26 -9.25 -9.24 -9.21 -9.19 -9.18 -9.19 -9.23 -9.37 -9.47 -9.57 -9.63 -9.68 -9.69 -9.6 -9.53 -9.46 -9.39 -9.33 -9.28 -9.24 -9.24 -9.26 -9.28 -9.3 -9.31 -9.31 -9.29 -9.27 -9.25 -9.24 -9.23 -9.23 -9.22 -9.21 -9.18 -9.14 -9.11 -9.06 -9.05 -9.05 -9.05 -9.06 -9.07 -9.12 -9.15 -9.18 -9.21 -9.25 -9.29 -9.34 -9.36 -9.39 -9.43 -9.47 -9.51 -9.59 -9.62 -9.64 -9.64 -9.64 -9.63 -9.63 -9.63 -9.63 -9.64 -9.64 -9.65 -9.68 -9.71 -9.76 -9.83 -9.9 -10.01 -10.06 -10.09 -10.11 -10.15 -10.2 -10.31 -10.36 -10.42 -10.49 -10.56 -10.61 -10.68 -10.69 -10.68 -10.66 -10.63 -10.6 -10.54 -10.53 -10.55 -10.58 -10.62 -10.66 -10.73 -10.77 -10.81 -10.85 -10.88 -10.91 -10.98 -11.03 -11.1 -11.19 -11.27 -11.37 -11.51 -11.55 -11.58 -11.64 -11.68 -11.7 -11.67 -11.65 -11.62 -11.84 -11.94 -11.88 -12.54 -13.99 -15.59 -17.6 -20.35 -24.5 -25.72 -26.04 -26.4 -24.63 -21.26 -14.69 -12.57 -11.23 -11.03 -10.96 -10.88 -10.72 -10.65 -10.59 -10.55 -10.52 -10.49 -10.44 -10.43 -10.42 -10.42 -10.41 -10.41 -10.41 -10.41 -10.4 -10.39 -10.37 -10.36 -10.35 -10.35 -10.34 -10.34 -10.34 -10.34 -10.33 -10.33 -10.32 -10.34 -10.36 -10.4 -10.41 -10.42 -10.42 -10.43 -10.45 -10.55 -10.61 -10.66 -10.69 -10.71 -10.71 -10.67 -10.62 -10.57 -10.55 -10.54 -10.55 -10.55 -10.54 -10.49 -10.43 -10.39 -10.35 -10.3 -10.29 -10.3 -10.31 -10.33 -10.34 -10.39 -10.41 -10.42 -10.43 -10.46 -10.5 -10.57 -10.58 -10.57 -10.54 -10.49 -10.42 -10.23 -10.14 -10.03 -9.91 -9.78 -9.5 -9.37 -9.26 -9.15 -9.01 -8.87 -8.57 -8.43 -8.31 -8.2 -8.06 -7.87 -7.48 -7.3 -7.11 -6.91 -6.7 -6.5 -6.14 -6.01 -5.83 -5.58 -5.31 -5.09 -4.72 -4.67 -4.79 -5.05 -5.49 -6.06 -7.17 -7.55 -7.86 -8.13 -8.39 -8.66 -9.08 -9.2 -9.27 -9.33 -9.38 -9.43 -9.5 -9.53 -9.58 -9.63 -9.69 -9.73 -9.81 -9.85 -9.88 -9.9 -9.91 -9.91 -9.91 -9.91 -9.91 -9.91 -9.92 -9.97 -9.99 -10.01 -10.0 -9.98 -9.94 -9.87 -9.85 -9.84 -9.84 -9.84 -9.85 -9.86 -9.87 -9.88 -9.9 -9.91 -9.92 -9.95 -9.98 -10.03 -10.08 -10.12 -10.14 -10.08 -10.03 -9.98 -9.95 -9.94 -9.96 -10.0 -10.01 -10.03 -10.05 -10.07 -10.1 -10.13 -10.15 -10.17 -10.21 -10.25 -10.36 -10.42 -10.48 -10.52 -10.57 -10.6 -10.64 -10.66 -10.68 -10.7 -10.72 -10.73 -10.74 -10.74 -10.73 -10.71 -10.69 -10.69 -10.73 -10.78 -10.82 -10.87 -10.92 -10.97 -11.06 -11.11 -11.16 -11.22 -11.27 -11.29 -11.36 -11.41 -11.45 -11.5 -11.57 -11.65 -11.8 -11.86 -11.9 -11.92 -11.92 -11.89 -11.77 -11.7 -11.65 -11.59 -11.53 -11.47 -11.42 -11.44 -11.47 -11.5 -11.52 -11.52 -11.51 -11.48 -11.45 -11.44 -11.47 -11.67 -11.8 -11.88 -11.95 -12.0 -12.06 -12.17 -12.21 -12.23 -12.25 -12.24 -12.23 -12.22 -12.23 -12.25 -12.25 -12.23 -12.22 -12.25 -12.31 -12.39 -12.48 -12.58 -12.67 -12.81 -12.89 -12.96 -13.01 -13.06 -13.09 -13.14 -13.17 -13.21 -13.24 -13.29 -13.34 -13.39 -13.37 -13.35 -13.32 -13.3 -13.25 -13.11 -13.04 -12.96 -12.9 -12.84 -12.72
-10.35 -10.32 -10.31 -10.29 -10.27 -10.25 -10.21 -10.13 -10.09 -10.05 -10.01 -9.99 -9.98 -10.01 -10.04 -10.07 -10.09 -10.1 -10.11 -10.12 -10.14 -10.16 -10.17 -10.16 -10.13 -9.99 -9.9 -9.81 -9.74 -9.67 -9.6 -9.43 -9.36 -9.33 -9.31 -9.29 -9.28 -9.25 -9.21 -9.19 -9.19 -9.23 -9.37 -9.46 -9.55 -9.63 -9.66 -9.67 -9.58 -9.5 -9.42 -9.35 -9.3 -9.26 -9.22 -9.23 -9.24 -9.27 -9.29 -9.3 -9.29 -9.27 -9.25 -9.23 -9.22 -9.22 -9.22 -9.22 -9.21 -9.18 -9.15 -9.12 -9.07 -9.06 -9.05 -9.05 -9.06 -9.07 -9.1 -9.13 -9.16 -9.19 -9.23 -9.27 -9.34 -9.36 -9.39 -9.43 -9.47 -9.52 -9.61 -9.64 -9.65 -9.66 -9.66 -9.64 -9.64 -9.64 -9.64 -9.65 -9.66 -9.67 -9.68 -9.71 -9.76 -9.82 -9.89 -10.02 -10.07 -10.1 -10.13 -10.17 -10.22 -10.33 -10.38 -10.44 -10.51 -10.58 -10.63 -10.68 -10.68 -10.67 -10.65 -10.62 -10.58 -10.51 -10.51 -10.52 -10.55 -10.59 -10.63 -10.7 -10.75 -10.8 -10.84 -10.87 -10.9 -10.96 -11.0 -11.08 -11.16 -11.24 -11.33 -11.46 -11.5 -11.53 -11.59 -11.64 -11.65 -11.63 -11.61 -11.59 -11.57 -11.54 -11.5 -11.48 -11.73 -11.85 -12.87 -14.79 -19.42 -21.44 -23.25 -25.04 -26.42 -25.0 -20.17 -16.67 -13.47 -11.79 -11.37 -11.29 -10.75 -10.68 -10.61 -10.57 -10.53 -10.5 -10.46 -10.45 -10.44 -10.43 -10.43 -10.42 -10.42 -10.42 -10.41 -10.39 -10.38 -10.37 -10.36 -10.35 -10.35 -10.35 -10.35 -10.35 -10.35 -10.34 -10.34 -10.35 -10.37 -10.42 -10.44 -10.44 -10.45 -10.46 -10.48 -10.58 -10.64 -10.68 -10.7 -10.72 -10.72 -10.67 -10.62 -10.58 -10.56 -10.55 -10.56 -10.58 -10.56 -10.52 -10.47 -10.42 -10.37 -10.3 -10.29 -10.3 -10.31 -10.33 -10.35 -10.41 -10.44 -10.46 -10.47 -10.5 -10.53 -10.6 -10.61 -10.61 -10.58 -10.52 -10.44 -10.25 -10.16 -10.05 -9.93 -9.79 -9.51 -9.4 -9.3 -9.18 -9.03 -8.88 -8.62 -8.5 -8.4 -8.3 -8.17 -7.96 -7.53 -7.34 -7.14 -6.95 -6.76 -6.58 -6.23 -6.06 -5.87 -5.62 -5.35 -5.11 -4.74 -4.67 -4.76 -5.01 -5.44 -6.02 -7.08 -7.42 -7.71 -7.99 -8.29 -8.58 -9.02 -9.16 -9.24 -9.31 -9.37 -9.42 -9.5 -9.53 -9.57 -9.62 -9.67 -9.72 -9.8 -9.84 -9.86 -9.88 -9.89 -9.89 -9.9 -9.9 -9.9 -9.91 -9.92 -9.96 -9.98 -10.0 -9.99 -9.97 -9.94 -9.87 -9.85 -9.84 -9.84 -9.84 -9.85 -9.85 -9.86 -9.87 -9.89 -9.9 -9.9 -9.93 -9.97 -10.02 -10.08 -10.12 -10.14 -10.09 -10.03 -9.98 -9.94 -9.93 -9.93 -9.97 -9.99 -10.0 -10.02 -10.05 -10.08 -10.13 -10.15 -10.18 -10.21 -10.25 -10.36 -10.41 -10.46 -10.51 -10.55 -10.59 -10.64 -10.66 -10.67 -10.69 -10.7 -10.72 -10.74 -10.74 -10.73 -10.71 -10.7 -10.69 -10.73 -10.77 -10.82 -10.87 -10.91 -10.96 -11.05 -11.1 -11.15 -11.19 -11.23 -11.26 -11.34 -11.39 -11.43 -11.48 -11.55 -11.62 -11.77 -11.84 -11.88 -11.9 -11.9 -11.87 -11.75 -11.69 -11.63 -11.58 -11.53 -11.48 -11.44 -11.46 -11.49 -11.51 -11.54 -11.54 -11.53 -11.51 -11.49 -11.49 -11.52 -11.71 -11.83 -11.91 -11.98 -12.03 -12.08 -12.17 -12.22 -12.25 -12.26 -12.26 -12.25 -12.25 -12.26 -12.27 -12.28 -12.27 -12.25 -12.28 -12.32 -12.39 -12.49 -12.59 -12.69 -12.83 -12.9 -12.97 -13.03 -13.08 -13.11 -13.15 -13.19 -13.22 -13.26 -13.31 -13.36 -13.42 -13.42 -13.4 -13.38 -13.36 -13.31 -13.16 -13.07 -13.0 -12.93 -12.86 -12.72
-10.31 -10.29 -10.28 -10.26 -10.23 -10.2 -10.17 -10.09 -10.04 -10.01 -9.98 -9.96 -9.94 -9.95 -9.97 -9.99 -10.01 -10.03 -10.04 -10.07 -10.1 -10.12 -10.13 -10.12 -10.1 -10.0 -9.91 -9.82 -9.73 -9.65 -9.59 -9.46 -9.4 -9.37 -9.35 -9.34 -9.32 -9.28 -9.24 -9.2 -9.2 -9.23 -9.36 -9.44 -9.53 -9.6 -9.64 -9.63 -9.53 -9.46 -9.38 -9.32 -9.26 -9.23 -9.2 -9.21 -9.23 -9.25 -9.28 -9.28 -9.27 -9.25 -9.23 -9.22 -9.21 -9.21 -9.21 -9.21 -9.21 -9.19 -9.16 -9.13 -9.08 -9.06 -9.05 -9.05 -9.05 -9.06 -9.08 -9.1 -9.13 -9.16 -9.21 -9.25 -9.33 -9.36 -9.39 -9.43 -9.48 -9.54 -9.64 -9.67 -9.68 -9.68 -9.68 -9.65 -9.65 -9.65 -9.66 -9.66 -9.67 -9.68 -9.69 -9.71 -9.75 -9.81 -9.88 -10.03 -10.08 -10.12 -10.15 -10.19 -10.23 -10.35 -10.41 -10.47 -10.53 -10.59 -10.64 -10.67 -10.67 -10.65 -10.63 -10.59 -10.56 -10.49 -10.48 -10.49 -10.52 -10.56 -10.59 -10.68 -10.74 -10.79 -10.83 -10.87 -10.89 -10.94 -10.98 -11.04 -11.11 -11.19 -11.26 -11.4 -11.44 -11.48 -11.53 -11.57 -11.58 -11.57 -11.56 -11.55 -11.53 -11.51 -11.47 -11.47 -11.47 -11.47 -11.48 -11.86 -13.98 -15.58 -17.59 -21.35 -24.68 -26.04 -24.69 -21.72 -18.23 -16.12 -15.24 -14.02 -10.77 -10.7 -10.64 -10.59 -10.55 -10.52 -10.48 -10.47 -10.46 -10.45 -10.44 -10.43 -10.43 -10.42 -10.41 -10.4 -10.38 -10.38 -10.36 -10.36 -10.35 -10.35 -10.35 -10.36 -10.36 -10.35 -10.35 -10.37 -10.39 -10.44 -10.46 -10.47 -10.49 -10.5 -10.53 -10.62 -10.67 -10.7 -10.72 -10.73 -10.73 -10.67 -10.62 -10.59 -10.57 -10.56 -10.57 -10.59 -10.58 -10.55 -10.51 -10.45 -10.4 -10.3 -10.29 -10.3 -10.31 -10.33 -10.36 -10.43 -10.46 -10.48 -10.51 -10.54 -10.57 -10.64 -10.65 -10.64 -10.62 -10.57 -10.49 -10.3 -10.21 -10.11 -9.98 -9.83 -9.55 -9.44 -9.35 -9.23 -9.07 -8.91 -8.66 -8.56 -8.46 -8.37 -8.24 -8.05 -7.62 -7.42 -7.19 -6.99 -6.83 -6.68 -6.37 -6.16 -5.93 -5.67 -5.39 -5.14 -4.76 -4.69 -4.75 -4.97 -5.39 -5.98 -7.08 -7.38 -7.65 -7.93 -8.24 -8.54 -8.96 -9.11 -9.22 -9.3 -9.36 -9.41 -9.5 -9.54 -9.57 -9.61 -9.66 -9.7 -9.79 -9.82 -9.84 -9.86 -9.87 -9.88 -9.89 -9.89 -9.9 -9.91 -9.92 -9.96 -9.97 -9.98 -9.98 -9.96 -9.94 -9.87 -9.85 -9.84 -9.83 -9.83 -9.84 -9.84 -9.85 -9.86 -9.87 -9.88 -9.88 -9.92 -9.96 -10.02 -10.08 -10.13 -10.15 -10.11 -10.05 -9.99 -9.94 -9.91 -9.91 -9.94 -9.95 -9.98 -10.0 -10.03 -10.06 -10.12 -10.15 -10.18 -10.21 -10.25 -10.35 -10.4 -10.45 -10.49 -10.54 -10.58 -10.64 -10.65 -10.67 -10.68 -10.69 -10.7 -10.74 -10.74 -10.73 -10.72 -10.7 -10.69 -10.72 -10.77 -10.82 -10.86 -10.91 -10.95 -11.05 -11.1 -11.14 -11.17 -11.2 -11.23 -11.33 -11.37 -11.41 -11.46 -11.52 -11.59 -11.75 -11.81 -11.85 -11.88 -11.88 -11.85 -11.74 -11.67 -11.61 -11.56 -11.52 -11.47 -11.45 -11.47 -11.49 -11.52 -11.54 -11.55 -11.54 -11.53 -11.52 -11.53 -11.58 -11.76 -11.86 -11.94 -12.0 -12.05 -12.1 -12.18 -12.22 -12.26 -12.28 -12.28 -12.27 -12.27 -12.28 -12.29 -12.3 -12.29 -12.29 -12.3 -12.34 -12.4 -12.5 -12.61 -12.71 -12.85 -12.91 -12.98 -13.05 -13.1 -13.13 -13.18 -13.22 -13.26 -13.3 -13.34 -13.39 -13.46 -13.46 -13.45 -13.44 -13.41 -13.37 -13.19 -13.1 -13.02 -12.95 -12.88 -12.73
-10.27 -10.25 -10.24 -10.21 -10.19 -10.16 -10.12 -10.03 -9.98 -9.95 -9.93 -9.91 -9.89 -9.88 -9.89 -9.9 -9.92 -9.95 -9.97 -10.02 -10.04 -10.06 -10.08 -10.08 -10.07 -9.99 -9.92 -9.84 -9.76 -9.68 -9.62 -9.49 -9.44 -9.41 -9.39 -9.37 -9.35 -9.3 -9.26 -9.22 -9.21 -9.22 -9.33 -9.41 -9.5 -9.56 -9.59 -9.58 -9.47 -9.4 -9.33 -9.27 -9.22 -9.18 -9.17 -9.18 -9.2 -9.23 -9.25 -9.26 -9.25 -9.24 -9.22 -9.21 -9.21 -9.2 -9.21 -9.21 -9.21 -9.19 -9.17 -9.14 -9.09 -9.07 -9.05 -9.04 -9.04 -9.04 -9.05 -9.06 -9.09 -9.13 -9.17 -9.22 -9.32 -9.36 -9.39 -9.43 -9.49 -9.56 -9.67 -9.7 -9.71 -9.71 -9.7 -9.68 -9.67 -9.67 -9.68 -9.68 -9.69 -9.7 -9.71 -9.72 -9.76 -9.82 -9.89 -10.04 -10.1 -10.15 -10.19 -10.23 -10.27 -10.38 -10.43 -10.49 -10.55 -10.6 -10.64 -10.65 -10.64 -10.63 -10.6 -10.56 -10.52 -10.46 -10.45 -10.45 -10.48 -10.51 -10.55 -10.66 -10.72 -10.78 -10.83 -10.86 -10.89 -10.92 -10.95 -10.99 -11.05 -11.11 -11.18 -11.32 -11.38 -11.43 -11.47 -11.49 -11.49 -11.49 -11.5 -11.5 -11.48 -11.46 -11.44 -11.44 -11.45 -11.46 -11.47 -11.48 -11.74 -11.87 -13.25 -16.59 -20.35 -23.02 -26.25 -25.26 -23.74 -22.44 -21.65 -19.9 -12.58 -10.74 -10.67 -10.62 -10.58 -10.55 -10.51 -10.5 -10.49 -10.48 -10.46 -10.45 -10.44 -10.43 -10.41 -10.4 -10.39 -10.38 -10.37 -10.36 -10.36 -10.36 -10.37 -10.38 -10.39 -10.38 -10.38 -10.4 -10.42 -10.47 -10.49 -10.52 -10.54 -10.56 -10.59 -10.66 -10.7 -10.73 -10.74 -10.75 -10.74 -10.68 -10.64 -10.61 -10.59 -10.58 -10.59 -10.61 -10.6 -10.58 -10.54 -10.49 -10.43 -10.32 -10.3 -10.3 -10.31 -10.33 -10.36 -10.44 -10.47 -10.5 -10.54 -10.57 -10.61 -10.68 -10.69 -10.69 -10.68 -10.64 -10.57 -10.4 -10.31 -10.19 -10.06 -9.91 -9.63 -9.52 -9.42 -9.3 -9.14 -8.98 -8.73 -8.64 -8.55 -8.46 -8.36 -8.2 -7.79 -7.56 -7.3 -7.06 -6.9 -6.78 -6.5 -6.26 -5.98 -5.7 -5.43 -5.19 -4.82 -4.73 -4.76 -4.93 -5.3 -5.85 -7.0 -7.31 -7.56 -7.85 -8.16 -8.47 -8.89 -9.04 -9.17 -9.27 -9.35 -9.41 -9.5 -9.54 -9.58 -9.61 -9.65 -9.69 -9.77 -9.8 -9.82 -9.84 -9.85 -9.86 -9.87 -9.89 -9.9 -9.91 -9.92 -9.95 -9.96 -9.97 -9.97 -9.95 -9.93 -9.88 -9.85 -9.83 -9.83 -9.83 -9.83 -9.83 -9.83 -9.84 -9.85 -9.85 -9.86 -9.91 -9.96 -10.02 -10.08 -10.13 -10.16 -10.12 -10.06 -9.99 -9.93 -9.89 -9.88 -9.9 -9.92 -9.95 -9.98 -10.01 -10.04 -10.11 -10.14 -10.18 -10.22 -10.26 -10.35 -10.39 -10.43 -10.47 -10.52 -10.56 -10.63 -10.65 -10.67 -10.68 -10.69 -10.7 -10.73 -10.74 -10.73 -10.72 -10.71 -10.69 -10.71 -10.75 -10.81 -10.86 -10.91 -10.95 -11.04 -11.09 -11.13 -11.15 -11.17 -11.2 -11.3 -11.35 -11.38 -11.42 -11.49 -11.56 -11.71 -11.77 -11.82 -11.84 -11.85 -11.82 -11.71 -11.64 -11.58 -11.53 -11.49 -11.45 -11.44 -11.45 -11.48 -11.5 -11.53 -11.55 -11.55 -11.55 -11.55 -11.57 -11.62 -11.79 -11.88 -11.95 -12.01 -12.06 -12.1 -12.19 -12.23 -12.26 -12.28 -12.29 -12.28 -12.28 -12.28 -12.3 -12.31 -12.32 -12.31 -12.33 -12.37 -12.43 -12.53 -12.64 -12.73 -12.87 -12.93 -13.0 -13.06 -13.12 -13.16 -13.21 -13.26 -13.31 -13.36 -13.4 -13.45 -13.52 -13.52 -13.52 -13.5 -13.48 -13.42 -13.23 -13.13 -13.05 -12.98 -12.9 -12.74
-10.23 -10.21 -10.19 -10.17 -10.14 -10.11 -10.07 -9.97 -9.92 -9.89 -9.87 -9.85 -9.83 -9.81 -9.8 -9.81 -9.83 -9.86 -9.9 -9.95 -9.98 -10.01 -10.03 -10.03 -10.02 -9.97 -9.92 -9.87 -9.81 -9.73 -9.65 -9.51 -9.47 -9.45 -9.43 -9.4 -9.37 -9.31 -9.28 -9.25 -9.22 -9.21 -9.29 -9.38 -9.46 -9.52 -9.54 -9.52 -9.4 -9.33 -9.26 -9.2 -9.16 -9.14 -9.13 -9.14 -9.17 -9.2 -9.23 -9.25 -9.24 -9.24 -9.22 -9.21 -9.21 -9.21 -9.22 -9.22 -9.21 -9.2 -9.18 -9.15 -9.09 -9.06 -9.04 -9.03 -9.02 -9.01 -9.01 -9.02 -9.05 -9.08 -9.12 -9.17 -9.29 -9.34 -9.39 -9.44 -9.51 -9.57 -9.69 -9.73 -9.74 -9.75 -9.74 -9.71 -9.71 -9.71 -9.71 -9.71 -9.72 -9.73 -9.73 -9.75 -9.78 -9.84 -9.91 -10.06 -10.13 -10.18 -10.23 -10.28 -10.32 -10.41 -10.47 -10.52 -10.56 -10.6 -10.63 -10.62 -10.6 -10.58 -10.55 -10.52 -10.48 -10.41 -10.4 -10.4 -10.43 -10.46 -10.5 -10.63 -10.69 -10.75 -10.8 -10.85 -10.88 -10.89 -10.9 -10.93 -10.97 -11.02 -11.08 -11.23 -11.31 -11.37 -11.4 -11.41 -11.4 -11.41 -11.42 -11.43 -11.42 -11.41 -11.4 -11.41 -11.41 -11.43 -11.44 -11.46 -11.49 -11.5 -11.51 -12.89 -14.92 -17.6 -24.1 -25.66 -26.06 -25.87 -25.8 -24.32 -15.98 -12.42 -10.72 -10.66 -10.62 -10.59 -10.55 -10.54 -10.52 -10.5 -10.48 -10.47 -10.45 -10.44 -10.42 -10.41 -10.4 -10.4 -10.38 -10.37 -10.37 -10.38 -10.38 -10.41 -10.42 -10.42 -10.43 -10.44 -10.46 -10.51 -10.54 -10.57 -10.6 -10.63 -10.66 -10.71 -10.74 -10.76 -10.77 -10.76 -10.75 -10.7 -10.67 -10.65 -10.62 -10.61 -10.61 -10.63 -10.62 -10.6 -10.58 -10.53 -10.47 -10.36 -10.33 -10.31 -10.31 -10.33 -10.36 -10.44 -10.48 -10.52 -10.56 -10.6 -10.64 -10.71 -10.73 -10.75 -10.75 -10.72 -10.68 -10.56 -10.46 -10.32 -10.17 -10.02 -9.75 -9.62 -9.5 -9.38 -9.22 -9.07 -8.82 -8.73 -8.66 -8.58 -8.49 -8.37 -7.98 -7.72 -7.42 -7.16 -6.98 -6.86 -6.59 -6.34 -6.04 -5.76 -5.5 -5.27 -4.9 -4.79 -4.78 -4.89 -5.19 -5.66 -6.83 -7.17 -7.45 -7.73 -8.03 -8.34 -8.81 -8.98 -9.12 -9.24 -9.32 -9.39 -9.5 -9.54 -9.58 -9.61 -9.64 -9.68 -9.75 -9.78 -9.8 -9.81 -9.82 -9.85 -9.86 -9.88 -9.89 -9.91 -9.92 -9.94 -9.95 -9.96 -9.95 -9.95 -9.93 -9.88 -9.86 -9.84 -9.83 -9.82 -9.82 -9.82 -9.82 -9.83 -9.83 -9.83 -9.83 -9.89 -9.95 -10.02 -10.08 -10.14 -10.17 -10.14 -10.07 -10.0 -9.94 -9.89 -9.86 -9.87 -9.9 -9.94 -9.97 -10.0 -10.02 -10.1 -10.14 -10.18 -10.22 -10.26 -10.35 -10.38 -10.42 -10.46 -10.5 -10.55 -10.63 -10.65 -10.67 -10.68 -10.69 -10.7 -10.73 -10.74 -10.74 -10.73 -10.71 -10.69 -10.7 -10.74 -10.79 -10.85 -10.91 -10.95 -11.03 -11.07 -11.11 -11.12 -11.14 -11.16 -11.25 -11.3 -11.34 -11.38 -11.44 -11.51 -11.67 -11.73 -11.78 -11.81 -11.81 -11.79 -11.68 -11.62 -11.55 -11.5 -11.45 -11.42 -11.4 -11.42 -11.44 -11.47 -11.5 -11.54 -11.55 -11.56 -11.58 -11.61 -11.66 -11.81 -11.89 -11.95 -12.01 -12.05 -12.1 -12.19 -12.22 -12.25 -12.28 -12.28 -12.28 -12.27 -12.28 -12.3 -12.32 -12.33 -12.34 -12.35 -12.39 -12.46 -12.56 -12.67 -12.75 -12.89 -12.95 -13.02 -13.09 -13.14 -13.18 -13.24 -13.3 -13.36 -13.42 -13.48 -13.53 -13.59 -13.6 -13.6 -13.58 -13.55 -13.48 -13.29 -13.18 -13.08 -13.0 -12.92 -12.75
-10.2 -10.17 -10.15 -10.13 -10.11 -10.07 -10.02 -9.92 -9.87 -9.84 -9.82 -9.79 -9.77 -9.73 -9.72 -9.71 -9.73 -9.77 -9.81 -9.88 -9.91 -9.95 -9.98 -9.99 -9.99 -9.95 -9.91 -9.87 -9.82 -9.76 -9.67 -9.54 -9.51 -9.49 -9.46 -9.42 -9.39 -9.32 -9.28 -9.25 -9.22 -9.2 -9.25 -9.33 -9.4 -9.46 -9.48 -9.46 -9.34 -9.26 -9.19 -9.13 -9.1 -9.08 -9.09 -9.11 -9.14 -9.18 -9.22 -9.23 -9.24 -9.23 -9.23 -9.22 -9.22 -9.22 -9.22 -9.22 -9.22 -9.2 -9.18 -9.15 -9.09 -9.06 -9.04 -9.01 -8.99 -8.98 -8.97 -8.98 -9.0 -9.02 -9.06 -9.12 -9.26 -9.32 -9.38 -9.45 -9.52 -9.59 -9.71 -9.76 -9.78 -9.78 -9.77 -9.76 -9.75 -9.75 -9.75 -9.75 -9.76 -9.76 -9.77 -9.79 -9.82 -9.87 -9.93 -10.09 -10.16 -10.22 -10.28 -10.34 -10.38 -10.46 -10.5 -10.53 -10.57 -10.59 -10.6 -10.57 -10.55 -10.52 -10.49 -10.46 -10.42 -10.36 -10.34 -10.35 -10.36 -10.39 -10.44 -10.57 -10.63 -10.69 -10.75 -10.8 -10.83 -10.85 -10.85 -10.86 -10.89 -10.93 -10.98 -11.12 -11.21 -11.27 -11.3 -11.3 -11.3 -11.32 -11.33 -11.34 -11.34 -11.33 -11.34 -11.35 -11.36 -11.38 -11.41 -11.43 -11.47 -11.48 -11.5 -11.5 -11.87 -13.12 -19.41 -22.43 -24.86 -25.94 -26.24 -26.15 -20.5 -15.4 -11.82 -10.71 -10.67 -10.64 -10.6 -10.58 -10.56 -10.54 -10.52 -10.5 -10.47 -10.46 -10.45 -10.43 -10.42 -10.41 -10.39 -10.38 -10.38 -10.39 -10.4 -10.43 -10.45 -10.46 -10.48 -10.49 -10.51 -10.55 -10.59 -10.63 -10.67 -10.7 -10.72 -10.77 -10.79 -10.8 -10.8 -10.78 -10.76 -10.72 -10.7 -10.68 -10.66 -10.65 -10.64 -10.64 -10.64 -10.63 -10.6 -10.56 -10.51 -10.4 -10.35 -10.32 -10.31 -10.32 -10.35 -10.44 -10.49 -10.53 -10.58 -10.62 -10.66 -10.74 -10.78 -10.81 -10.82 -10.82 -10.81 -10.76 -10.66 -10.51 -10.34 -10.18 -9.88 -9.73 -9.59 -9.45 -9.3 -9.16 -8.92 -8.83 -8.74 -8.65 -8.56 -8.47 -8.08 -7.81 -7.51 -7.25 -7.07 -6.93 -6.64 -6.41 -6.13 -5.86 -5.6 -5.37 -5.0 -4.87 -4.82 -4.88 -5.09 -5.48 -6.61 -7.01 -7.3 -7.59 -7.88 -8.19 -8.74 -8.92 -9.07 -9.19 -9.28 -9.36 -9.49 -9.54 -9.58 -9.62 -9.64 -9.67 -9.73 -9.76 -9.78 -9.8 -9.81 -9.84 -9.86 -9.87 -9.89 -9.91 -9.92 -9.94 -9.95 -9.95 -9.95 -9.94 -9.93 -9.9 -9.88 -9.86 -9.84 -9.83 -9.83 -9.82 -9.82 -9.81 -9.81 -9.81 -9.81 -9.88 -9.94 -10.01 -10.08 -10.14 -10.17 -10.15 -10.09 -10.02 -9.95 -9.89 -9.85 -9.85 -9.88 -9.93 -9.97 -10.01 -10.03 -10.1 -10.14 -10.18 -10.23 -10.27 -10.35 -10.38 -10.41 -10.45 -10.5 -10.54 -10.62 -10.65 -10.68 -10.69 -10.7 -10.71 -10.73 -10.74 -10.74 -10.74 -10.72 -10.69 -10.68 -10.72 -10.77 -10.84 -10.9 -10.95 -11.02 -11.06 -11.09 -11.1 -11.11 -11.12 -11.21 -11.25 -11.29 -11.33 -11.39 -11.45 -11.62 -11.7 -11.75 -11.78 -11.78 -11.75 -11.65 -11.58 -11.52 -11.46 -11.41 -11.38 -11.36 -11.37 -11.39 -11.43 -11.47 -11.52 -11.55 -11.58 -11.61 -11.64 -11.69 -11.82 -11.89 -11.95 -12.0 -12.05 -12.09 -12.18 -12.22 -12.25 -12.26 -12.27 -12.26 -12.26 -12.27 -12.3 -12.32 -12.34 -12.35 -12.37 -12.41 -12.49 -12.59 -12.69 -12.77 -12.9 -12.97 -13.05 -13.11 -13.17 -13.21 -13.28 -13.34 -13.41 -13.49 -13.56 -13.61 -13.67 -13.68 -13.68 -13.66 -13.61 -13.54 -13.34 -13.22 -13.11 -13.01 -12.93 -12.77
-10.15 -10.11 -10.09 -10.07 -10.04 -10.01 -9.96 -9.86 -9.81 -9.77 -9.73 -9.7 -9.67 -9.61 -9.59 -9.58 -9.59 -9.62 -9.67 -9.75 -9.79 -9.84 -9.89 -9.93 -9.94 -9.93 -9.9 -9.84 -9.78 -9.73 -9.66 -9.56 -9.52 -9.5 -9.47 -9.43 -9.38 -9.29 -9.26 -9.24 -9.22 -9.19 -9.18 -9.21 -9.26 -9.3 -9.33 -9.32 -9.21 -9.13 -9.06 -9.01 -8.99 -8.98 -9.01 -9.05 -9.1 -9.15 -9.19 -9.21 -9.23 -9.23 -9.22 -9.22 -9.22 -9.22 -9.23 -9.22 -9.22 -9.2 -9.19 -9.16 -9.09 -9.05 -9.02 -8.99 -8.95 -8.92 -8.9 -8.9 -8.91 -8.93 -8.96 -9.02 -9.18 -9.28 -9.37 -9.45 -9.53 -9.61 -9.74 -9.79 -9.83 -9.84 -9.85 -9.85 -9.85 -9.85 -9.85 -9.85 -9.84 -9.83 -9.84 -9.88 -9.91 -9.95 -9.99 -10.13 -10.22 -10.3 -10.37 -10.44 -10.49 -10.54 -10.55 -10.55 -10.55 -10.54 -10.52 -10.46 -10.44 -10.4 -10.36 -10.32 -10.29 -10.25 -10.23 -10.21 -10.21 -10.23 -10.27 -10.4 -10.47 -10.53 -10.6 -10.65 -10.68 -10.71 -10.72 -10.72 -10.73 -10.74 -10.77 -10.89 -10.96 -11.02 -11.05 -11.07 -11.09 -11.1 -11.1 -11.12 -11.14 -11.15 -11.18 -11.2 -11.22 -11.25 -11.28 -11.31 -11.36 -11.4 -11.42 -11.44 -11.45 -11.46 -11.71 -12.84 -14.87 -17.52 -21.24 -24.52 -25.39 -22.01 -16.69 -12.6 -10.92 -10.76 -10.72 -10.7 -10.69 -10.66 -10.64 -10.61 -10.56 -10.55 -10.53 -10.51 -10.49 -10.47 -10.44 -10.42 -10.42 -10.43 -10.45 -10.5 -10.53 -10.56 -10.59 -10.62 -10.63 -10.66 -10.7 -10.74 -10.77 -10.8 -10.82 -10.85 -10.85 -10.85 -10.84 -10.82 -10.8 -10.76 -10.76 -10.75 -10.73 -10.71 -10.69 -10.69 -10.68 -10.68 -10.66 -10.63 -10.59 -10.48 -10.42 -10.37 -10.34 -10.33 -10.34 -10.42 -10.48 -10.54 -10.59 -10.63 -10.67 -10.78 -10.84 -10.9 -10.94 -10.98 -11.05 -11.15 -11.1 -10.97 -10.8 -10.6 -10.18 -9.99 -9.81 -9.63 -9.47 -9.33 -9.1 -8.99 -8.87 -8.72 -8.58 -8.47 -8.11 -7.86 -7.64 -7.44 -7.25 -7.06 -6.7 -6.54 -6.34 -6.1 -5.86 -5.64 -5.24 -5.06 -4.91 -4.86 -4.94 -5.18 -6.07 -6.44 -6.78 -7.18 -7.58 -7.95 -8.54 -8.76 -8.94 -9.09 -9.19 -9.29 -9.47 -9.54 -9.59 -9.62 -9.64 -9.66 -9.71 -9.74 -9.76 -9.78 -9.8 -9.83 -9.85 -9.86 -9.87 -9.9 -9.92 -9.94 -9.94 -9.94 -9.93 -9.93 -9.93 -9.93 -9.93 -9.91 -9.89 -9.88 -9.86 -9.83 -9.82 -9.8 -9.79 -9.78 -9.8 -9.87 -9.92 -9.99 -10.06 -10.12 -10.17 -10.18 -10.13 -10.06 -9.99 -9.93 -9.88 -9.84 -9.86 -9.9 -9.96 -10.02 -10.07 -10.14 -10.18 -10.21 -10.26 -10.31 -10.39 -10.42 -10.45 -10.48 -10.53 -10.57 -10.65 -10.68 -10.7 -10.71 -10.72 -10.73 -10.74 -10.75 -10.74 -10.73 -10.7 -10.66 -10.63 -10.66 -10.72 -10.78 -10.85 -10.91 -11.0 -11.03 -11.05 -11.06 -11.06 -11.07 -11.12 -11.15 -11.19 -11.23 -11.29 -11.35 -11.51 -11.6 -11.65 -11.68 -11.68 -11.66 -11.57 -11.5 -11.44 -11.38 -11.32 -11.27 -11.21 -11.23 -11.26 -11.3 -11.35 -11.48 -11.54 -11.6 -11.64 -11.68 -11.72 -11.82 -11.88 -11.93 -11.98 -12.03 -12.08 -12.16 -12.19 -12.21 -12.23 -12.23 -12.23 -12.24 -12.27 -12.3 -12.34 -12.36 -12.38 -12.43 -12.49 -12.57 -12.65 -12.73 -12.8 -12.93 -13.0 -13.08 -13.15 -13.56 -13.95 -13.33 -13.39 -13.46 -13.55 -13.64 -13.71 -13.82 -13.84 -13.83 -13.8 -13.73 -13.65 -13.41 -13.28 -13.17 -13.06 -12.96 -12.8
-10.12 -10.09 -10.07 -10.04 -10.01 -9.98 -9.94 -9.85 -9.79 -9.74 -9.7 -9.66 -9.62 -9.56 -9.54 -9.54 -9.55 -9.57 -9.62 -9.7 -9.74 -9.8 -9.85 -9.9 -9.93 -9.93 -9.89 -9.83 -9.77 -9.7 -9.64 -9.53 -9.49 -9.47 -9.44 -9.41 -9.37 -9.28 -9.25 -9.23 -9.21 -9.18 -9.14 -9.16 -9.18 -9.21 -9.23 -9.23 -9.14 -9.07 -9.01 -8.96 -8.94 -8.93 -8.98 -9.02 -9.08 -9.13 -9.17 -9.19 -9.21 -9.22 -9.22 -9.22 -9.22 -9.23 -9.23 -9.22 -9.21 -9.2 -9.19 -9.16 -9.09 -9.05 -9.02 -8.98 -8.93 -8.9 -8.88 -8.88 -8.88 -8.9 -8.93 -8.98 -9.14 -9.24 -9.34 -9.44 -9.53 -9.6 -9.74 -9.8 -9.84 -9.87 -9.88 -9.9 -9.9 -9.91 -9.9 -9.89 -9.89 -9.87 -9.88 -9.91 -9.95 -9.98 -10.02 -10.14 -10.23 -10.31 -10.4 -10.47 -10.52 -10.56 -10.57 -10.55 -10.53 -10.5 -10.48 -10.41 -10.38 -10.35 -10.3 -10.27 -10.24 -10.2 -10.17 -10.14 -10.14 -10.15 -10.19 -10.31 -10.38 -10.46 -10.52 -10.57 -10.6 -10.64 -10.66 -10.66 -10.66 -10.66 -10.69 -10.79 -10.85 -10.9 -10.93 -10.96 -10.98 -10.99 -11.0 -11.01 -11.04 -11.06 -11.1 -11.12 -11.15 -11.17 -11.2 -11.23 -11.29 -11.33 -11.37 -11.4 -11.41 -11.42 -11.44 -11.44 -11.81 -13.18 -16.49 -20.21 -24.77 -24.55 -20.88 -16.36 -13.19 -11.54 -10.79 -10.78 -10.76 -10.74 -10.71 -10.68 -10.63 -10.61 -10.59 -10.56 -10.54 -10.52 -10.47 -10.46 -10.46 -10.46 -10.48 -10.53 -10.56 -10.6 -10.64 -10.67 -10.69 -10.73 -10.76 -10.79 -10.81 -10.83 -10.85 -10.87 -10.87 -10.87 -10.86 -10.84 -10.83 -10.79 -10.78 -10.76 -10.74 -10.72 -10.71 -10.71 -10.7 -10.7 -10.68 -10.66 -10.62 -10.52 -10.46 -10.41 -10.37 -10.34 -10.34 -10.39 -10.45 -10.52 -10.58 -10.63 -10.67 -10.78 -10.85 -10.92 -10.97 -11.03 -11.13 -11.3 -11.29 -11.19 -11.02 -10.82 -10.34 -10.13 -9.93 -9.74 -9.57 -9.42 -9.16 -9.04 -8.91 -8.77 -8.63 -8.51 -8.16 -7.95 -7.75 -7.54 -7.33 -7.12 -6.77 -6.62 -6.42 -6.19 -5.96 -5.76 -5.35 -5.13 -4.93 -4.82 -4.84 -5.04 -5.78 -6.11 -6.47 -6.91 -7.4 -7.83 -8.44 -8.67 -8.87 -9.02 -9.14 -9.24 -9.45 -9.53 -9.59 -9.62 -9.63 -9.64 -9.69 -9.72 -9.74 -9.77 -9.79 -9.83 -9.84 -9.85 -9.87 -9.89 -9.91 -9.94 -9.94 -9.94 -9.93 -9.93 -9.94 -9.95 -9.95 -9.94 -9.92 -9.9 -9.87 -9.83 -9.82 -9.8 -9.79 -9.78 -9.79 -9.86 -9.92 -9.98 -10.04 -10.11 -10.16 -10.19 -10.16 -10.1 -10.03 -9.96 -9.91 -9.86 -9.86 -9.9 -9.97 -10.04 -10.1 -10.18 -10.21 -10.24 -10.29 -10.33 -10.42 -10.46 -10.49 -10.52 -10.56 -10.6 -10.67 -10.7 -10.72 -10.73 -10.74 -10.75 -10.75 -10.75 -10.74 -10.72 -10.68 -10.64 -10.59 -10.62 -10.67 -10.74 -10.81 -10.88 -10.99 -11.02 -11.04 -11.04 -11.04 -11.05 -11.09 -11.11 -11.14 -11.18 -11.24 -11.31 -11.45 -11.52 -11.59 -11.63 -11.64 -11.62 -11.53 -11.46 -11.39 -11.33 -11.26 -11.19 -11.1 -11.11 -11.14 -11.19 -11.26 -11.45 -11.53 -11.6 -11.64 -11.68 -11.72 -11.81 -11.86 -11.92 -11.97 -12.02 -12.07 -12.14 -12.17 -12.19 -12.2 -12.21 -12.22 -12.25 -12.28 -12.32 -12.35 -12.38 -12.4 -12.47 -12.54 -12.62 -12.68 -12.75 -12.82 -12.94 -13.01 -13.07 -13.27 -14.13 -15.91 -14.89 -13.8 -13.49 -13.56 -13.64 -13.72 -13.87 -13.9 -13.88 -13.84 -13.78 -13.69 -13.45 -13.32 -13.19 -13.09 -12.99 -12.83
-10.09 -10.05 -10.04 -10.02 -9.99 -9.96 -9.92 -9.83 -9.78 -9.72 -9.67 -9.62 -9.58 -9.51 -9.5 -9.5 -9.51 -9.53 -9.58 -9.67 -9.71 -9.76 -9.82 -9.88 -9.92 -9.92 -9.88 -9.83 -9.76 -9.69 -9.62 -9.5 -9.46 -9.44 -9.42 -9.39 -9.36 -9.27 -9.24 -9.22 -9.2 -9.18 -9.11 -9.1 -9.11 -9.13 -9.14 -9.13 -9.07 -9.02 -8.96 -8.91 -8.89 -8.89 -8.95 -9.0 -9.05 -9.1 -9.14 -9.16 -9.19 -9.2 -9.21 -9.22 -9.22 -9.23 -9.22 -9.21 -9.2 -9.2 -9.18 -9.16 -9.09 -9.05 -9.01 -8.97 -8.93 -8.89 -8.87 -8.86 -8.86 -8.87 -8.9 -8.95 -9.1 -9.2 -9.31 -9.42 -9.52 -9.6 -9.74 -9.8 -9.84 -9.88 -9.91 -9.95 -9.96 -9.96 -9.95 -9.94 -9.94 -9.91 -9.91 -9.94 -9.97 -10.0 -10.04 -10.14 -10.22 -10.3 -10.39 -10.46 -10.51 -10.56 -10.56 -10.54 -10.51 -10.47 -10.43 -10.35 -10.32 -10.29 -10.25 -10.22 -10.2 -10.15 -10.12 -10.1 -10.08 -10.09 -10.12 -10.24 -10.31 -10.38 -10.45 -10.5 -10.53 -10.59 -10.6 -10.6 -10.6 -10.6 -10.62 -10.7 -10.75 -10.8 -10.84 -10.86 -10.88 -10.89 -10.9 -10.92 -10.95 -10.99 -11.05 -11.07 -11.08 -11.1 -11.13 -11.16 -11.22 -11.26 -11.3 -11.34 -11.37 -11.38 -11.4 -11.42 -11.42 -11.42 -12.79 -14.79 -21.11 -24.37 -24.04 -21.44 -17.98 -14.89 -11.24 -10.85 -10.84 -10.81 -10.78 -10.75 -10.7 -10.68 -10.65 -10.63 -10.6 -10.57 -10.51 -10.5 -10.49 -10.5 -10.51 -10.56 -10.59 -10.63 -10.66 -10.69 -10.73 -10.8 -10.83 -10.84 -10.86 -10.87 -10.88 -10.89 -10.89 -10.88 -10.87 -10.86 -10.85 -10.82 -10.8 -10.78 -10.76 -10.74 -10.73 -10.73 -10.72 -10.72 -10.7 -10.68 -10.65 -10.56 -10.51 -10.46 -10.41 -10.36 -10.34 -10.37 -10.42 -10.49 -10.56 -10.62 -10.67 -10.78 -10.87 -10.95 -11.01 -11.08 -11.19 -11.42 -11.47 -11.39 -11.23 -11.02 -10.51 -10.27 -10.04 -9.84 -9.68 -9.53 -9.19 -9.06 -8.95 -8.83 -8.71 -8.59 -8.26 -8.06 -7.86 -7.65 -7.42 -7.2 -6.88 -6.72 -6.52 -6.26 -6.04 -5.87 -5.45 -5.18 -4.94 -4.78 -4.75 -4.88 -5.51 -5.83 -6.21 -6.69 -7.22 -7.7 -8.36 -8.6 -8.79 -8.93 -9.06 -9.18 -9.42 -9.51 -9.57 -9.6 -9.6 -9.61 -9.65 -9.69 -9.71 -9.74 -9.77 -9.82 -9.84 -9.85 -9.86 -9.88 -9.91 -9.94 -9.94 -9.94 -9.94 -9.93 -9.94 -9.96 -9.97 -9.96 -9.94 -9.91 -9.89 -9.84 -9.83 -9.81 -9.79 -9.78 -9.79 -9.86 -9.91 -9.96 -10.03 -10.09 -10.15 -10.2 -10.18 -10.13 -10.07 -10.01 -9.96 -9.9 -9.9 -9.95 -10.02 -10.1 -10.15 -10.22 -10.25 -10.28 -10.33 -10.37 -10.46 -10.5 -10.54 -10.57 -10.6 -10.63 -10.7 -10.72 -10.74 -10.75 -10.75 -10.76 -10.76 -10.76 -10.74 -10.71 -10.67 -10.62 -10.55 -10.57 -10.63 -10.71 -10.79 -10.86 -10.97 -11.01 -11.03 -11.03 -11.02 -11.03 -11.06 -11.08 -11.11 -11.14 -11.2 -11.26 -11.39 -11.45 -11.52 -11.57 -11.59 -11.57 -11.48 -11.42 -11.36 -11.28 -11.19 -11.1 -10.99 -10.98 -11.0 -11.05 -11.13 -11.4 -11.5 -11.58 -11.64 -11.67 -11.71 -11.79 -11.84 -11.9 -11.96 -12.01 -12.07 -12.13 -12.15 -12.17 -12.18 -12.19 -12.2 -12.27 -12.31 -12.34 -12.37 -12.4 -12.42 -12.51 -12.59 -12.66 -12.72 -12.77 -12.83 -12.94 -13.0 -13.06 -13.26 -14.84 -18.04 -19.3 -16.92 -14.93 -13.6 -13.66 -13.75 -13.91 -13.94 -13.92 -13.88 -13.81 -13.72 -13.48 -13.35 -13.23 -13.13 -13.04 -12.88
-10.07 -10.03 -10.01 -9.99 -9.97 -9.94 -9.9 -9.81 -9.76 -9.7 -9.65 -9.59 -9.54 -9.48 -9.47 -9.46 -9.47 -9.49 -9.54 -9.63 -9.68 -9.74 -9.8 -9.85 -9.9 -9.91 -9.87 -9.82 -9.76 -9.68 -9.6 -9.47 -9.43 -9.41 -9.4 -9.38 -9.35 -9.26 -9.24 -9.22 -9.2 -9.17 -9.08 -9.05 -9.04 -9.05 -9.05 -9.05 -9.01 -8.97 -8.92 -8.88 -8.86 -8.86 -8.93 -8.98 -9.03 -9.08 -9.12 -9.14 -9.18 -9.2 -9.21 -9.22 -9.22 -9.23 -9.22 -9.21 -9.2 -9.19 -9.18 -9.16 -9.09 -9.05 -9.01 -8.97 -8.93 -8.89 -8.86 -8.84 -8.84 -8.85 -8.88 -8.92 -9.05 -9.14 -9.26 -9.38 -9.5 -9.59 -9.72 -9.78 -9.84 -9.9 -9.94 -9.99 -10.0 -10.0 -10.0 -10.0 -9.99 -9.96 -9.95 -9.96 -9.99 -10.02 -10.05 -10.14 -10.2 -10.27 -10.35 -10.42 -10.48 -10.55 -10.55 -10.52 -10.48 -10.43 -10.38 -10.3 -10.27 -10.24 -10.21 -10.19 -10.17 -10.11 -10.08 -10.06 -10.04 -10.05 -10.07 -10.18 -10.25 -10.32 -10.38 -10.43 -10.48 -10.54 -10.56 -10.56 -10.56 -10.56 -10.56 -10.63 -10.68 -10.73 -10.76 -10.77 -10.78 -10.8 -10.82 -10.85 -10.89 -10.93 -11.01 -11.03 -11.04 -11.05 -11.07 -11.09 -11.15 -11.19 -11.23 -11.28 -11.31 -11.32 -11.35 -11.37 -11.39 -11.39 -11.38 -11.73 -16.36 -20.06 -22.68 -23.61 -23.12 -20.18 -14.36 -12.31 -10.9 -10.88 -10.86 -10.84 -10.78 -10.76 -10.73 -10.7 -10.66 -10.61 -10.55 -10.54 -10.54 -10.54 -10.55 -10.59 -10.62 -10.65 -10.68 -10.72 -10.77 -10.86 -10.88 -10.89 -10.89 -10.9 -10.9 -10.91 -10.91 -10.9 -10.89 -10.88 -10.87 -10.85 -10.82 -10.8 -10.78 -10.76 -10.76 -10.75 -10.74 -10.74 -10.73 -10.71 -10.68 -10.6 -10.55 -10.89 -10.83 -10.39 -10.35 -10.35 -10.4 -10.47 -10.55 -10.6 -10.66 -10.8 -10.89 -10.97 -11.04 -11.12 -11.24 -11.53 -11.61 -11.57 -11.41 -11.21 -10.69 -10.41 -10.14 -9.93 -9.77 -9.61 -9.22 -9.07 -8.97 -8.88 -8.8 -8.7 -8.37 -8.16 -7.96 -7.74 -7.52 -7.31 -7.0 -6.85 -6.64 -6.36 -6.12 -5.95 -5.52 -5.23 -4.95 -4.75 -4.68 -4.76 -5.27 -5.63 -6.04 -6.53 -7.06 -7.56 -8.3 -8.54 -8.69 -8.82 -8.96 -9.12 -9.4 -9.49 -9.54 -9.55 -9.56 -9.57 -9.62 -9.65 -9.69 -9.72 -9.75 -9.81 -9.83 -9.85 -9.86 -9.88 -9.9 -9.94 -9.95 -9.95 -9.94 -9.94 -9.94 -9.96 -9.97 -9.97 -9.95 -9.93 -9.9 -9.86 -9.84 -9.82 -9.81 -9.8 -9.8 -9.85 -9.9 -9.95 -10.02 -10.09 -10.16 -10.22 -10.2 -10.16 -10.1 -10.05 -10.01 -9.96 -9.98 -10.04 -10.12 -10.18 -10.22 -10.27 -10.3 -10.34 -10.38 -10.42 -10.52 -10.56 -10.6 -10.63 -10.65 -10.67 -10.72 -10.74 -10.75 -10.76 -10.77 -10.77 -10.77 -10.76 -10.74 -10.71 -10.66 -10.6 -10.52 -10.53 -10.59 -10.67 -10.75 -10.83 -10.95 -10.99 -11.01 -11.01 -11.01 -11.01 -11.04 -11.06 -11.08 -11.12 -11.17 -11.22 -11.33 -11.39 -11.46 -11.51 -11.53 -11.53 -11.45 -11.39 -11.33 -11.25 -11.14 -11.03 -10.89 -10.87 -10.88 -10.92 -11.02 -11.34 -11.47 -11.57 -11.63 -11.67 -11.7 -11.77 -11.82 -11.89 -11.95 -12.01 -12.06 -12.12 -12.14 -12.15 -12.16 -12.18 -12.2 -12.29 -12.33 -12.36 -12.39 -12.42 -12.45 -12.56 -12.63 -12.7 -12.75 -12.79 -12.84 -12.93 -12.98 -13.04 -13.24 -14.49 -19.0 -24.79 -22.43 -18.72 -15.42 -14.08 -13.79 -13.94 -13.97 -13.95 -13.9 -13.83 -13.74 -13.52 -13.4 -13.28 -13.18 -13.1 -12.93
-10.07 -10.01 -9.99 -9.97 -9.94 -9.91 -9.87 -9.78 -9.73 -9.68 -9.63 -9.57 -9.52 -9.45 -9.43 -9.43 -9.44 -9.46 -9.51 -9.59 -9.64 -9.7 -9.77 -9.82 -9.87 -9.89 -9.86 -9.81 -9.75 -9.68 -9.6 -9.45 -9.41 -9.39 -9.38 -9.37 -9.34 -9.25 -9.23 -9.22 -9.19 -9.15 -9.05 -9.01 -8.99 -8.98 -8.98 -8.98 -8.97 -8.94 -8.91 -8.88 -8.85 -8.85 -8.92 -8.97 -9.02 -9.07 -9.1 -9.12 -9.17 -9.2 -9.21 -9.22 -9.23 -9.23 -9.22 -9.21 -9.19 -9.19 -9.18 -9.15 -9.09 -9.05 -9.01 -8.96 -8.92 -8.89 -8.84 -8.83 -8.82 -8.83 -8.86 -8.9 -9.01 -9.1 -9.21 -9.33 -9.46 -9.56 -9.71 -9.77 -9.83 -9.9 -9.97 -10.03 -10.05 -10.05 -10.05 -10.04 -10.03 -10.0 -9.98 -9.99 -10.0 -10.03 -10.07 -10.14 -10.19 -10.24 -10.3 -10.36 -10.43 -10.52 -10.53 -10.51 -10.46 -10.4 -10.35 -10.26 -10.23 -10.21 -10.19 -10.17 -10.14 -10.08 -10.05 -10.03 -10.01 -10.0 -10.01 -10.12 -10.19 -10.25 -10.31 -10.37 -10.43 -10.5 -10.52 -10.53 -10.53 -10.52 -10.52 -10.57 -10.62 -10.66 -10.68 -10.69 -10.7 -10.72 -10.75 -10.79 -10.84 -10.9 -10.99 -11.01 -11.02 -11.02 -11.03 -11.04 -11.09 -11.13 -11.17 -11.21 -11.24 -11.26 -11.3 -11.31 -11.33 -11.33 -11.34 -11.33 -12.66 -14.65 -17.27 -20.99 -24.04 -24.38 -19.86 -16.08 -12.72 -10.94 -10.93 -10.92 -10.87 -10.84 -10.82 -10.78 -10.73 -10.68 -10.61 -10.59 -10.59 -10.59 -10.6 -10.64 -10.67 -10.69 -10.73 -10.77 -10.82 -10.89 -10.91 -10.92 -10.92 -10.92 -10.91 -10.92 -10.92 -10.91 -10.91 -10.9 -10.9 -10.87 -10.84 -10.81 -10.79 -10.78 -10.78 -10.77 -10.77 -11.16 -11.15 -11.14 -11.11 -11.04 -12.05 -13.73 -13.66 -11.47 -10.37 -10.35 -10.39 -10.47 -10.54 -10.6 -10.67 -10.82 -10.91 -10.99 -11.05 -11.14 -11.27 -11.6 -11.71 -11.69 -11.56 -11.36 -10.81 -10.5 -10.23 -9.99 -9.82 -9.66 -9.23 -9.07 -8.98 -8.91 -8.86 -8.78 -8.48 -8.24 -8.01 -7.81 -7.6 -7.42 -7.12 -6.97 -6.76 -6.47 -6.19 -6.01 -5.57 -5.27 -4.97 -4.73 -4.62 -4.66 -5.12 -5.46 -5.9 -6.39 -6.9 -7.41 -8.24 -8.48 -8.6 -8.7 -8.85 -9.04 -9.37 -9.45 -9.5 -9.51 -9.51 -9.52 -9.59 -9.64 -9.68 -9.72 -9.75 -9.8 -9.82 -9.84 -9.86 -9.87 -9.89 -9.94 -9.95 -9.95 -9.95 -9.94 -9.94 -9.96 -9.97 -9.97 -9.96 -9.95 -9.93 -9.88 -9.87 -9.85 -9.83 -9.82 -9.81 -9.85 -9.88 -9.94 -10.02 -10.1 -10.17 -10.23 -10.22 -10.18 -10.14 -10.11 -10.08 -10.03 -10.06 -10.12 -10.19 -10.24 -10.28 -10.34 -10.38 -10.41 -10.45 -10.49 -10.59 -10.63 -10.66 -10.68 -10.7 -10.72 -10.75 -10.76 -10.77 -10.78 -10.78 -10.79 -10.78 -10.77 -10.75 -10.71 -10.66 -10.6 -10.51 -10.51 -10.56 -10.63 -10.71 -10.79 -10.92 -10.96 -10.99 -10.99 -10.99 -11.0 -11.02 -11.04 -11.06 -11.1 -11.14 -11.19 -11.28 -11.35 -11.41 -11.46 -11.49 -11.49 -11.43 -11.37 -11.31 -11.23 -11.11 -11.0 -10.84 -10.82 -10.84 -10.89 -11.0 -11.32 -11.46 -11.56 -11.64 -11.68 -11.71 -11.77 -11.82 -11.88 -11.95 -12.01 -12.05 -12.1 -12.12 -12.13 -12.15 -12.17 -12.2 -12.3 -12.34 -12.37 -12.4 -12.43 -12.48 -12.6 -12.67 -12.73 -12.78 -12.81 -12.85 -12.93 -12.97 -13.02 -13.1 -13.93 -17.08 -26.75 -26.84 -23.56 -19.82 -17.18 -15.21 -13.97 -14.0 -13.98 -13.92 -13.85 -13.77 -13.55 -13.44 -13.33 -13.24 -13.16 -12.99
-10.08 -10.0 -9.97 -9.94 -9.92 -9.89 -9.85 -9.75 -9.7 -9.65 -9.61 -9.55 -9.5 -9.42 -9.4 -9.4 -9.41 -9.44 -9.48 -9.55 -9.6 -9.67 -9.73 -9.79 -9.84 -9.87 -9.85 -9.81 -9.75 -9.68 -9.6 -9.45 -9.39 -9.37 -9.36 -9.35 -9.32 -9.25 -9.23 -9.21 -9.19 -9.14 -9.02 -8.98 -8.95 -8.93 -8.92 -8.92 -8.93 -8.93 -8.92 -8.9 -8.88 -8.88 -8.93 -8.98 -9.02 -9.06 -9.1 -9.12 -9.18 -9.2 -9.21 -9.22 -9.23 -9.23 -9.23 -9.21 -9.2 -9.19 -9.17 -9.15 -9.09 -9.06 -9.01 -8.96 -8.92 -8.88 -8.83 -8.81 -8.81 -8.82 -8.84 -8.88 -8.98 -9.06 -9.16 -9.28 -9.41 -9.52 -9.7 -9.76 -9.82 -9.9 -9.98 -10.06 -10.08 -10.09 -10.09 -10.08 -10.07 -10.03 -10.01 -10.0 -10.01 -10.04 -10.07 -10.14 -10.17 -10.21 -10.26 -10.32 -10.39 -10.49 -10.5 -10.48 -10.44 -10.39 -10.33 -10.25 -10.22 -10.2 -10.17 -10.15 -10.11 -10.05 -10.02 -10.0 -9.98 -9.97 -9.97 -10.05 -10.12 -10.19 -10.25 -10.32 -10.37 -10.45 -10.48 -10.49 -10.49 -10.48 -10.48 -10.52 -10.56 -10.59 -10.6 -10.61 -10.62 -10.64 -10.68 -10.73 -10.8 -10.87 -10.98 -11.0 -11.0 -10.99 -10.99 -10.99 -11.03 -11.07 -11.1 -11.14 -11.17 -11.19 -11.23 -11.24 -11.25 -11.27 -11.28 -11.28 -11.26 -11.6 -12.94 -16.24 -20.31 -23.19 -24.27 -20.92 -16.12 -12.77 -11.0 -10.99 -10.96 -10.94 -10.91 -10.87 -10.81 -10.76 -10.67 -10.65 -10.64 -10.65 -10.66 -10.7 -10.72 -10.75 -10.79 -10.83 -10.86 -10.92 -10.93 -10.94 -10.94 -10.93 -10.92 -10.92 -10.92 -10.93 -10.93 -10.93 -10.93 -10.89 -10.86 -10.83 -10.81 -10.8 -10.8 -11.19 -12.26 -14.03 -15.1 -15.09 -15.06 -15.36 -17.04 -19.44 -18.31 -13.64 -10.8 -10.37 -10.41 -10.47 -10.55 -10.61 -10.68 -10.84 -10.92 -10.99 -11.05 -11.14 -11.29 -11.63 -11.74 -11.75 -11.64 -11.44 -10.86 -10.55 -10.26 -10.02 -9.83 -9.64 -9.19 -9.03 -8.95 -8.9 -8.86 -8.82 -8.54 -8.29 -8.04 -7.84 -7.67 -7.52 -7.24 -7.07 -6.85 -6.56 -6.27 -6.07 -5.6 -5.3 -4.99 -4.73 -4.59 -4.61 -5.03 -5.34 -5.75 -6.24 -6.77 -7.29 -8.14 -8.39 -8.52 -8.62 -8.77 -8.96 -9.3 -9.4 -9.44 -9.45 -9.44 -9.46 -9.58 -9.64 -9.68 -9.73 -9.76 -9.8 -9.82 -9.84 -9.86 -9.87 -9.89 -9.94 -9.95 -9.96 -9.95 -9.95 -9.94 -9.95 -9.96 -9.96 -9.96 -9.96 -9.95 -9.91 -9.9 -9.89 -9.86 -9.84 -9.83 -9.84 -9.87 -9.93 -10.01 -10.1 -10.18 -10.25 -10.24 -10.21 -10.19 -10.16 -10.14 -10.11 -10.13 -10.19 -10.25 -10.29 -10.33 -10.42 -10.46 -10.5 -10.53 -10.57 -10.66 -10.7 -10.73 -10.75 -10.76 -10.77 -10.78 -10.78 -10.79 -10.79 -10.79 -10.8 -10.79 -10.78 -10.76 -10.72 -10.68 -10.62 -10.51 -10.5 -10.54 -10.6 -10.67 -10.74 -10.87 -10.93 -10.96 -10.97 -10.98 -10.99 -11.01 -11.03 -11.05 -11.08 -11.12 -11.16 -11.25 -11.3 -11.36 -11.41 -11.45 -11.46 -11.42 -11.36 -11.31 -11.23 -11.12 -11.01 -10.85 -10.85 -10.87 -10.95 -11.06 -11.35 -11.48 -11.58 -11.65 -11.7 -11.73 -11.78 -11.82 -11.88 -11.95 -12.01 -12.05 -12.09 -12.11 -12.13 -12.15 -12.17 -12.21 -12.3 -12.34 -12.37 -12.4 -12.44 -12.5 -12.63 -12.7 -12.76 -12.79 -12.82 -12.86 -12.93 -12.97 -13.02 -13.11 -13.23 -14.87 -25.1 -28.24 -27.29 -25.29 -22.65 -18.94 -13.98 -14.01 -13.99 -13.94 -13.88 -13.8 -13.59 -13.48 -13.38 -13.3 -13.22 -13.04
-10.05 -9.96 -9.92 -9.88 -9.85 -9.81 -9.78 -9.69 -9.64 -9.6 -9.56 -9.52 -9.48 -9.39 -9.37 -9.36 -9.38 -9.4 -9.43 -9.5 -9.54 -9.6 -9.67 -9.74 -9.79 -9.83 -9.82 -9.79 -9.74 -9.67 -9.6 -9.45 -9.39 -9.35 -9.32 -9.3 -9.28 -9.24 -9.22 -9.2 -9.17 -9.12 -8.98 -8.92 -8.87 -8.84 -8.82 -8.82 -8.87 -8.91 -8.95 -8.96 -8.95 -8.93 -8.95 -8.98 -9.03 -9.08 -9.12 -9.15 -9.19 -9.21 -9.23 -9.24 -9.24 -9.25 -9.24 -9.23 -9.21 -9.19 -9.17 -9.15 -9.09 -9.06 -9.02 -8.98 -8.93 -8.9 -8.84 -8.82 -8.81 -8.81 -8.82 -8.84 -8.92 -8.99 -9.08 -9.19 -9.29 -9.4 -9.63 -9.72 -9.8 -9.87 -9.94 -10.09 -10.13 -10.15 -10.14 -10.13 -10.12 -10.07 -10.04 -10.03 -10.03 -10.04 -10.06 -10.12 -10.15 -10.17 -10.2 -10.24 -10.29 -10.4 -10.43 -10.45 -10.43 -10.4 -10.36 -10.29 -10.25 -10.21 -10.17 -10.12 -10.08 -10.01 -9.99 -9.97 -9.95 -9.93 -9.93 -9.97 -10.02 -10.08 -10.14 -10.2 -10.25 -10.33 -10.36 -10.37 -10.39 -10.4 -10.42 -10.46 -10.47 -10.48 -10.48 -10.48 -10.5 -10.54 -10.58 -10.65 -10.72 -10.79 -10.92 -10.95 -10.94 -10.92 -10.9 -10.9 -10.92 -10.94 -10.97 -11.01 -11.04 -11.06 -11.09 -11.1 -11.12 -11.14 -11.16 -11.18 -11.22 -11.21 -11.2 -11.19 -12.25 -15.13 -24.48 -26.11 -24.35 -21.0 -16.22 -12.51 -11.12 -11.11 -11.07 -11.02 -10.97 -10.91 -10.8 -10.76 -10.76 -10.77 -10.78 -10.81 -10.83 -10.85 -10.88 -10.9 -10.93 -10.96 -10.97 -10.98 -10.97 -10.96 -10.94 -10.92 -10.93 -10.96 -10.98 -10.98 -10.98 -10.93 -10.9 -10.87 -12.3 -14.44 -17.29 -22.0 -23.48 -25.26 -26.33 -26.33 -26.3 -26.16 -26.05 -24.89 -19.88 -13.75 -10.91 -10.47 -10.48 -10.51 -10.57 -10.65 -10.72 -10.88 -10.94 -11.0 -11.07 -11.16 -11.29 -11.53 -11.61 -11.63 -11.58 -11.45 -10.92 -10.57 -10.22 -9.93 -9.72 -9.51 -9.02 -8.86 -8.78 -8.73 -8.69 -8.65 -8.45 -8.25 -8.02 -7.83 -7.75 -7.7 -7.48 -7.27 -7.0 -6.71 -6.41 -6.13 -5.62 -5.36 -5.1 -4.86 -4.68 -4.63 -5.0 -5.24 -5.54 -5.97 -7.3 -9.48 -10.46 -9.37 -8.4 -8.58 -8.72 -8.85 -9.05 -9.13 -9.18 -9.21 -9.26 -9.34 -9.54 -9.63 -9.68 -9.72 -9.74 -9.77 -9.79 -9.82 -9.84 -9.86 -9.88 -9.92 -9.94 -9.95 -9.96 -9.95 -9.95 -9.94 -9.94 -9.95 -9.96 -9.96 -9.96 -9.94 -9.93 -9.92 -9.9 -9.87 -9.85 -9.84 -9.87 -9.92 -10.0 -10.09 -10.18 -10.27 -10.27 -10.27 -10.26 -10.24 -10.24 -10.24 -10.27 -10.3 -10.33 -10.38 -10.44 -10.57 -10.61 -10.65 -10.68 -10.72 -10.79 -10.82 -10.85 -10.87 -10.87 -10.87 -10.84 -10.83 -10.82 -10.82 -10.83 -10.83 -10.82 -10.81 -10.79 -10.76 -10.71 -10.64 -10.51 -10.47 -10.5 -10.55 -10.61 -10.66 -10.78 -10.85 -10.9 -10.93 -10.95 -10.97 -11.0 -11.01 -11.03 -11.05 -11.08 -11.11 -11.19 -11.23 -11.27 -11.32 -11.38 -11.41 -11.42 -11.38 -11.33 -11.25 -11.17 -11.09 -10.97 -10.98 -11.04 -11.14 -11.25 -11.44 -11.55 -11.65 -11.72 -11.76 -11.79 -11.84 -11.87 -11.91 -11.95 -12.0 -12.04 -12.09 -12.11 -12.13 -12.16 -12.19 -12.21 -12.28 -12.32 -12.37 -12.42 -12.48 -12.54 -12.67 -12.73 -12.77 -12.79 -12.81 -12.86 -12.95 -13.0 -13.05 -13.14 -13.26 -13.38 -18.62 -23.46 -26.86 -28.66 -28.71 -27.03 -19.05 -15.76 -14.01 -13.99 -13.95 -13.89 -13.69 -13.58 -13.47 -13.39 -13.31 -13.17
-10.01 -9.93 -9.88 -9.84 -9.81 -9.77 -9.73 -9.65 -9.61 -9.57 -9.54 -9.5 -9.46 -9.39 -9.37 -9.36 -9.36 -9.38 -9.41 -9.48 -9.52 -9.59 -9.65 -9.71 -9.76 -9.8 -9.79 -9.77 -9.73 -9.68 -9.61 -9.46 -9.4 -9.35 -9.32 -9.29 -9.27 -9.24 -9.22 -9.19 -9.15 -9.11 -8.98 -8.92 -8.86 -8.81 -8.78 -8.77 -8.82 -8.87 -8.92 -8.95 -8.94 -8.93 -8.95 -8.99 -9.04 -9.09 -9.14 -9.17 -9.2 -9.22 -9.23 -9.24 -9.25 -9.25 -9.24 -9.23 -9.22 -9.19 -9.17 -9.14 -9.09 -9.05 -9.01 -8.98 -8.94 -8.9 -8.85 -8.83 -8.82 -8.81 -8.82 -8.83 -8.9 -8.96 -9.04 -9.14 -9.24 -9.35 -9.58 -9.69 -9.78 -9.84 -9.91 -10.08 -10.14 -10.16 -10.16 -10.15 -10.13 -10.08 -10.05 -10.03 -10.03 -10.03 -10.05 -10.11 -10.14 -10.16 -10.18 -10.21 -10.24 -10.35 -10.4 -10.43 -10.43 -10.41 -10.39 -10.32 -10.28 -10.22 -10.17 -10.12 -10.07 -10.0 -9.98 -9.96 -9.94 -9.92 -9.92 -9.95 -9.99 -10.03 -10.09 -10.14 -10.19 -10.27 -10.29 -10.3 -10.33 -10.36 -10.39 -10.44 -10.44 -10.44 -10.43 -10.43 -10.46 -10.5 -10.55 -10.61 -10.67 -10.74 -10.87 -10.9 -10.89 -10.87 -10.86 -10.86 -10.87 -10.89 -10.91 -10.95 -10.98 -11.0 -11.02 -11.04 -11.06 -11.08 -11.1 -11.13 -11.18 -11.19 -11.19 -11.18 -11.17 -12.67 -21.59 -25.09 -26.13 -24.37 -20.02 -14.58 -11.17 -11.16 -11.14 -11.1 -11.04 -10.98 -10.85 -10.81 -10.8 -10.81 -10.82 -10.85 -10.87 -10.89 -10.9 -10.92 -10.94 -10.97 -10.98 -10.99 -10.99 -10.97 -10.96 -10.94 -10.96 -10.98 -11.01 -11.01 -11.01 -10.96 -11.32 -12.74 -16.24 -20.2 -23.03 -25.91 -25.92 -26.33 -26.34 -26.32 -26.3 -26.54 -26.04 -23.15 -17.02 -12.04 -10.55 -10.5 -10.5 -10.52 -10.57 -10.63 -10.71 -10.86 -10.91 -10.96 -11.04 -11.15 -11.26 -11.43 -11.47 -11.5 -11.48 -11.39 -10.93 -10.6 -10.23 -9.91 -9.7 -9.49 -8.98 -8.83 -8.73 -8.67 -8.61 -8.55 -8.36 -8.19 -7.98 -7.83 -7.79 -7.8 -7.58 -7.35 -7.06 -6.77 -6.46 -6.13 -5.62 -5.42 -5.19 -4.96 -4.76 -4.68 -5.07 -5.3 -5.57 -6.22 -8.79 -13.15 -15.17 -12.43 -9.88 -8.56 -8.7 -8.79 -8.91 -8.96 -9.0 -9.06 -9.16 -9.29 -9.53 -9.62 -9.68 -9.71 -9.73 -9.76 -9.78 -9.8 -9.83 -9.85 -9.87 -9.91 -9.93 -9.95 -9.95 -9.96 -9.95 -9.94 -9.94 -9.95 -9.95 -9.95 -9.95 -9.94 -9.93 -9.92 -9.91 -9.88 -9.86 -9.84 -9.87 -9.93 -10.0 -10.09 -10.17 -10.27 -10.28 -10.28 -10.27 -10.26 -10.26 -10.29 -10.31 -10.34 -10.38 -10.44 -10.5 -10.62 -10.67 -10.7 -10.73 -10.76 -10.82 -10.86 -10.88 -10.9 -10.9 -10.89 -10.87 -10.86 -10.85 -10.85 -10.85 -10.85 -10.83 -10.81 -10.8 -10.77 -10.73 -10.66 -10.51 -10.47 -10.48 -10.53 -10.58 -10.63 -10.75 -10.81 -10.87 -10.91 -10.93 -10.95 -10.99 -11.01 -11.02 -11.04 -11.06 -11.1 -11.17 -11.2 -11.24 -11.29 -11.35 -11.39 -11.42 -11.39 -11.34 -11.28 -11.21 -11.13 -11.03 -11.05 -11.11 -11.21 -11.31 -11.46 -11.56 -11.66 -11.74 -11.78 -11.81 -11.86 -11.89 -11.92 -11.96 -12.0 -12.04 -12.1 -12.12 -12.14 -12.17 -12.19 -12.21 -12.27 -12.32 -12.37 -12.43 -12.5 -12.56 -12.68 -12.73 -12.76 -12.78 -12.81 -12.86 -12.96 -13.01 -13.07 -13.16 -13.27 -13.37 -15.26 -18.65 -23.47 -27.23 -28.67 -28.75 -23.81 -19.09 -15.78 -14.02 -13.99 -13.93 -13.75 -13.63 -13.52 -13.43 -13.35 -13.25
-9.98 -9.89 -9.84 -9.8 -9.76 -9.72 -9.69 -9.61 -9.58 -9.55 -9.52 -9.49 -9.45 -9.4 -9.37 -9.36 -9.36 -9.37 -9.4 -9.46 -9.51 -9.58 -9.64 -9.7 -9.74 -9.76 -9.76 -9.75 -9.72 -9.68 -9.62 -9.48 -9.42 -9.37 -9.33 -9.3 -9.27 -9.25 -9.22 -9.18 -9.14 -9.1 -9.0 -8.94 -8.86 -8.8 -8.75 -8.73 -8.76 -8.8 -8.86 -8.91 -8.92 -8.92 -8.96 -9.01 -9.06 -9.11 -9.15 -9.18 -9.22 -9.23 -9.24 -9.25 -9.25 -9.25 -9.24 -9.24 -9.22 -9.19 -9.16 -9.13 -9.07 -9.04 -9.01 -8.98 -8.94 -8.91 -8.85 -8.83 -8.82 -8.81 -8.81 -8.83 -8.89 -8.94 -9.01 -9.1 -9.2 -9.3 -9.53 -9.64 -9.74 -9.81 -9.88 -10.07 -10.13 -10.16 -10.16 -10.15 -10.14 -10.08 -10.05 -10.03 -10.02 -10.02 -10.03 -10.09 -10.13 -10.15 -10.16 -10.17 -10.2 -10.31 -10.37 -10.41 -10.42 -10.42 -10.41 -10.36 -10.31 -10.24 -10.17 -10.11 -10.06 -9.99 -9.97 -9.95 -9.93 -9.92 -9.91 -9.93 -9.96 -9.99 -10.04 -10.08 -10.14 -10.2 -10.22 -10.23 -10.26 -10.32 -10.37 -10.41 -10.41 -10.4 -10.38 -10.37 -10.43 -10.48 -10.53 -10.58 -10.64 -10.7 -10.82 -10.85 -10.85 -10.83 -10.82 -10.82 -10.82 -10.84 -10.86 -10.89 -10.92 -10.94 -10.97 -10.99 -11.01 -11.03 -11.05 -11.08 -11.13 -11.14 -11.16 -11.17 -11.17 -11.29 -18.19 -23.26 -25.89 -25.77 -22.72 -17.28 -11.19 -11.2 -11.19 -11.16 -11.11 -11.04 -10.9 -10.85 -10.84 -10.84 -10.85 -10.89 -10.9 -10.91 -10.92 -10.93 -10.94 -10.97 -10.99 -11.0 -11.0 -10.99 -10.98 -10.97 -10.99 -11.01 -11.04 -11.05 -11.04 -12.46 -14.58 -17.37 -21.3 -24.4 -24.79 -22.37 -22.39 -22.39 -22.39 -22.37 -22.33 -25.0 -25.58 -21.64 -15.24 -10.97 -10.55 -10.5 -10.49 -10.5 -10.53 -10.58 -10.65 -10.79 -10.84 -10.89 -10.97 -11.08 -11.18 -11.29 -11.33 -11.36 -11.37 -11.29 -10.91 -10.63 -10.28 -9.97 -9.75 -9.54 -9.04 -8.89 -8.79 -8.71 -8.63 -8.55 -8.36 -8.2 -8.0 -7.87 -7.88 -7.9 -7.64 -7.38 -7.09 -6.82 -6.52 -6.16 -5.67 -5.5 -5.3 -5.06 -4.85 -4.77 -5.18 -5.42 -5.66 -6.24 -9.5 -15.07 -18.6 -16.42 -12.74 -9.76 -8.67 -8.73 -8.78 -8.81 -8.86 -8.94 -9.08 -9.25 -9.52 -9.61 -9.67 -9.7 -9.71 -9.74 -9.76 -9.79 -9.82 -9.85 -9.87 -9.9 -9.92 -9.94 -9.95 -9.95 -9.95 -9.94 -9.94 -9.94 -9.94 -9.94 -9.94 -9.94 -9.93 -9.93 -9.91 -9.89 -9.86 -9.85 -9.87 -9.93 -10.0 -10.09 -10.16 -10.26 -10.29 -10.29 -10.28 -10.27 -10.27 -10.32 -10.36 -10.39 -10.43 -10.49 -10.55 -10.67 -10.71 -10.74 -10.76 -10.79 -10.85 -10.88 -10.9 -10.91 -10.91 -10.91 -10.9 -10.89 -10.89 -10.89 -10.89 -10.88 -10.84 -10.82 -10.81 -10.79 -10.75 -10.69 -10.52 -10.47 -10.48 -10.52 -10.57 -10.62 -10.73 -10.79 -10.84 -10.88 -10.92 -10.94 -10.99 -11.01 -11.02 -11.03 -11.05 -11.08 -11.15 -11.19 -11.23 -11.27 -11.33 -11.38 -11.41 -11.4 -11.36 -11.31 -11.25 -11.18 -11.1 -11.11 -11.16 -11.24 -11.33 -11.47 -11.57 -11.67 -11.74 -11.78 -11.81 -11.86 -11.89 -11.93 -11.97 -12.01 -12.05 -12.11 -12.13 -12.15 -12.17 -12.19 -12.21 -12.27 -12.31 -12.37 -12.43 -12.5 -12.57 -12.68 -12.72 -12.75 -12.78 -12.81 -12.86 -12.96 -13.02 -13.09 -13.17 -13.27 -13.36 -13.47 -15.27 -19.67 -25.14 -28.25 -28.69 -27.12 -23.86 -19.13 -15.8 -14.02 -13.97 -13.81 -13.7 -13.58 -13.48 -13.4 -13.31
-9.94 -9.86 -9.8 -9.76 -9.71 -9.67 -9.64 -9.58 -9.55 -9.52 -9.5 -9.47 -9.45 -9.4 -9.37 -9.35 -9.35 -9.37 -9.39 -9.44 -9.5 -9.56 -9.62 -9.68 -9.71 -9.73 -9.73 -9.72 -9.71 -9.68 -9.63 -9.51 -9.44 -9.39 -9.34 -9.31 -9.28 -9.27 -9.24 -9.2 -9.16 -9.11 -9.03 -8.95 -8.88 -8.8 -8.74 -8.69 -8.69 -8.73 -8.8 -8.86 -8.88 -8.89 -8.97 -9.02 -9.07 -9.11 -9.16 -9.19 -9.22 -9.23 -9.24 -9.25 -9.25 -9.25 -9.24 -9.23 -9.22 -9.19 -9.15 -9.11 -9.05 -9.02 -9.0 -8.97 -8.94 -8.91 -8.85 -8.84 -8.82 -8.82 -8.82 -8.83 -8.89 -8.93 -8.99 -9.06 -9.15 -9.25 -9.48 -9.58 -9.68 -9.77 -9.85 -10.04 -10.1 -10.13 -10.13 -10.13 -10.13 -10.08 -10.04 -10.02 -10.01 -10.0 -10.01 -10.07 -10.1 -10.12 -10.13 -10.14 -10.17 -10.27 -10.33 -10.38 -10.4 -10.41 -10.41 -10.38 -10.33 -10.26 -10.19 -10.12 -10.07 -9.99 -9.97 -9.94 -9.92 -9.91 -9.89 -9.91 -9.93 -9.96 -10.0 -10.04 -10.09 -10.15 -10.16 -10.17 -10.21 -10.27 -10.33 -10.38 -10.38 -10.36 -10.33 -10.33 -10.4 -10.45 -10.5 -10.55 -10.61 -10.67 -10.77 -10.8 -10.81 -10.8 -10.79 -10.79 -10.79 -10.8 -10.82 -10.84 -10.87 -10.9 -10.93 -10.94 -10.96 -10.98 -11.01 -11.03 -11.07 -11.1 -11.12 -11.15 -11.16 -11.16 -15.14 -20.36 -24.76 -26.15 -24.77 -20.72 -12.25 -11.23 -11.24 -11.22 -11.17 -11.1 -10.94 -10.89 -10.87 -10.87 -10.88 -10.92 -10.93 -10.93 -10.93 -10.94 -10.94 -10.98 -11.0 -11.01 -11.01 -11.01 -11.0 -11.01 -11.02 -11.05 -11.07 -11.08 -12.57 -17.52 -20.37 -22.74 -23.77 -23.03 -20.18 -15.51 -15.12 -15.11 -15.1 -15.07 -15.42 -19.92 -21.22 -18.76 -13.74 -10.94 -10.53 -10.48 -10.47 -10.45 -10.46 -10.49 -10.55 -10.69 -10.74 -10.79 -10.87 -10.96 -11.04 -11.12 -11.16 -11.21 -11.24 -11.19 -10.89 -10.67 -10.39 -10.12 -9.93 -9.71 -9.2 -9.08 -8.99 -8.91 -8.84 -8.77 -8.58 -8.38 -8.16 -8.02 -8.02 -8.01 -7.64 -7.34 -7.05 -6.82 -6.56 -6.25 -5.8 -5.64 -5.43 -5.19 -4.96 -4.9 -5.32 -5.52 -5.73 -6.26 -9.44 -15.21 -19.86 -19.15 -15.95 -11.53 -8.96 -8.67 -8.69 -8.73 -8.79 -8.9 -9.06 -9.24 -9.52 -9.6 -9.66 -9.69 -9.7 -9.73 -9.76 -9.78 -9.81 -9.84 -9.87 -9.9 -9.91 -9.93 -9.94 -9.95 -9.94 -9.94 -9.94 -9.93 -9.93 -9.93 -9.93 -9.92 -9.92 -9.92 -9.91 -9.89 -9.86 -9.85 -9.88 -9.93 -10.0 -10.08 -10.16 -10.26 -10.29 -10.3 -10.29 -10.27 -10.28 -10.36 -10.41 -10.46 -10.5 -10.55 -10.6 -10.71 -10.74 -10.76 -10.78 -10.81 -10.86 -10.89 -10.91 -10.92 -10.92 -10.92 -10.92 -10.93 -10.93 -10.93 -10.92 -10.9 -10.86 -10.84 -10.82 -10.8 -10.77 -10.71 -10.54 -10.47 -10.47 -10.5 -10.55 -10.61 -10.72 -10.77 -10.81 -10.85 -10.9 -10.93 -10.99 -11.01 -11.02 -11.03 -11.05 -11.08 -11.15 -11.18 -11.22 -11.26 -11.31 -11.36 -11.41 -11.41 -11.38 -11.34 -11.29 -11.24 -11.16 -11.17 -11.2 -11.27 -11.34 -11.48 -11.58 -11.67 -11.72 -11.75 -11.78 -11.84 -11.89 -11.94 -11.99 -12.04 -12.07 -12.13 -12.15 -12.16 -12.18 -12.2 -12.22 -12.28 -12.32 -12.37 -12.43 -12.51 -12.58 -12.68 -12.72 -12.74 -12.77 -12.8 -12.86 -12.96 -13.01 -13.07 -13.15 -13.24 -13.32 -13.42 -13.84 -16.94 -22.41 -26.81 -28.64 -28.83 -27.16 -23.89 -19.14 -15.8 -14.01 -13.87 -13.77 -13.65 -13.54 -13.46 -13.37
-9.89 -9.81 -9.76 -9.71 -9.66 -9.61 -9.58 -9.54 -9.51 -9.49 -9.48 -9.46 -9.44 -9.4 -9.37 -9.35 -9.35 -9.36 -9.38 -9.44 -9.48 -9.54 -9.6 -9.65 -9.68 -9.69 -9.7 -9.7 -9.69 -9.68 -9.65 -9.53 -9.46 -9.41 -9.36 -9.32 -9.29 -9.28 -9.27 -9.24 -9.19 -9.14 -9.05 -8.98 -8.89 -8.81 -8.73 -8.67 -8.63 -8.66 -8.74 -8.81 -8.85 -8.87 -8.97 -9.02 -9.07 -9.11 -9.15 -9.18 -9.22 -9.23 -9.23 -9.24 -9.24 -9.24 -9.23 -9.23 -9.21 -9.18 -9.14 -9.09 -9.02 -9.0 -8.98 -8.96 -8.94 -8.91 -8.86 -8.84 -8.83 -8.83 -8.83 -8.84 -8.89 -8.93 -8.97 -9.02 -9.1 -9.2 -9.42 -9.51 -9.61 -9.71 -9.81 -9.99 -10.04 -10.07 -10.09 -10.09 -10.09 -10.06 -10.03 -10.0 -9.98 -9.98 -9.99 -10.03 -10.06 -10.09 -10.11 -10.12 -10.14 -10.23 -10.29 -10.34 -10.38 -10.4 -10.4 -10.39 -10.35 -10.29 -10.22 -10.15 -10.08 -9.99 -9.96 -9.94 -9.91 -9.89 -9.88 -9.88 -9.9 -9.93 -9.97 -10.01 -10.05 -10.1 -10.12 -10.13 -10.17 -10.22 -10.28 -10.35 -10.34 -10.32 -10.29 -10.29 -10.38 -10.42 -10.47 -10.52 -10.59 -10.65 -10.75 -10.78 -10.78 -10.77 -10.76 -10.76 -10.75 -10.76 -10.78 -10.8 -10.83 -10.86 -10.88 -10.89 -10.91 -10.93 -10.96 -10.99 -11.03 -11.06 -11.09 -11.13 -11.15 -11.16 -12.67 -17.28 -23.1 -25.79 -26.04 -23.86 -13.97 -11.5 -11.27 -11.26 -11.22 -11.15 -10.98 -10.92 -10.89 -10.89 -10.91 -10.95 -10.95 -10.95 -10.94 -10.94 -10.95 -10.98 -11.0 -11.02 -11.02 -11.02 -11.02 -11.04 -11.06 -11.08 -11.51 -13.01 -16.6 -23.38 -23.96 -22.76 -20.25 -17.3 -14.44 -11.2 -11.18 -11.16 -11.14 -11.1 -11.04 -13.74 -14.76 -13.69 -11.55 -10.5 -10.48 -10.44 -10.42 -10.39 -10.38 -10.4 -10.44 -10.57 -10.63 -10.68 -10.75 -10.81 -10.87 -10.95 -10.99 -11.05 -11.08 -11.07 -10.87 -10.72 -10.54 -10.36 -10.2 -9.98 -9.46 -9.35 -9.29 -9.23 -9.19 -9.13 -8.9 -8.68 -8.43 -8.27 -8.2 -8.12 -7.61 -7.25 -6.94 -6.74 -6.57 -6.38 -6.0 -5.79 -5.55 -5.3 -5.1 -5.05 -5.42 -5.59 -5.76 -6.27 -9.42 -15.12 -19.61 -20.12 -18.17 -13.82 -9.8 -8.6 -8.66 -8.72 -8.81 -8.93 -9.08 -9.26 -9.54 -9.61 -9.66 -9.68 -9.7 -9.73 -9.75 -9.78 -9.81 -9.84 -9.87 -9.89 -9.91 -9.92 -9.93 -9.93 -9.93 -9.93 -9.93 -9.93 -9.92 -9.91 -9.91 -9.91 -9.9 -9.9 -9.89 -9.88 -9.86 -9.86 -9.89 -9.94 -10.0 -10.07 -10.15 -10.25 -10.29 -10.3 -10.29 -10.28 -10.29 -10.38 -10.45 -10.52 -10.57 -10.61 -10.65 -10.74 -10.77 -10.78 -10.8 -10.81 -10.87 -10.89 -10.91 -10.92 -10.92 -10.92 -10.94 -10.95 -10.96 -10.96 -10.94 -10.92 -10.88 -10.86 -10.84 -10.81 -10.78 -10.73 -10.56 -10.48 -10.46 -10.49 -10.54 -10.59 -10.7 -10.74 -10.78 -10.83 -10.87 -10.92 -10.98 -11.0 -11.01 -11.02 -11.04 -11.07 -11.14 -11.17 -11.21 -11.26 -11.31 -11.35 -11.41 -11.41 -11.4 -11.37 -11.33 -11.29 -11.22 -11.22 -11.25 -11.3 -11.36 -11.5 -11.59 -11.66 -11.69 -11.71 -11.73 -11.82 -11.87 -11.94 -12.01 -12.06 -12.11 -12.16 -12.17 -12.17 -12.18 -12.2 -12.22 -12.28 -12.32 -12.38 -12.44 -12.51 -12.57 -12.68 -12.71 -12.74 -12.76 -12.8 -12.85 -12.94 -12.99 -13.04 -13.1 -13.18 -13.26 -13.36 -13.4 -14.82 -18.58 -23.41 -26.94 -28.76 -28.86 -27.19 -23.91 -19.15 -15.8 -13.93 -13.83 -13.73 -13.62 -13.54 -13.42
-9.84 -9.76 -9.72 -9.67 -9.61 -9.56 -9.53 -9.49 -9.47 -9.46 -9.45 -9.44 -9.43 -9.39 -9.37 -9.36 -9.35 -9.36 -9.38 -9.43 -9.47 -9.52 -9.56 -9.61 -9.64 -9.65 -9.65 -9.66 -9.67 -9.68 -9.66 -9.56 -9.49 -9.43 -9.38 -9.34 -9.64 -10.0 -9.65 -9.38 -9.21 -9.16 -9.08 -9.0 -8.92 -8.83 -8.75 -8.68 -8.62 -8.65 -8.72 -8.79 -8.84 -8.87 -8.97 -9.14 -9.44 -9.1 -9.14 -9.17 -9.2 -9.21 -9.21 -9.22 -9.22 -9.22 -9.22 -9.21 -9.19 -9.16 -9.12 -9.07 -9.0 -8.98 -8.96 -8.95 -8.93 -8.91 -8.86 -8.85 -8.84 -8.83 -8.84 -8.85 -8.89 -8.92 -8.95 -9.0 -9.07 -9.16 -9.35 -9.44 -9.54 -9.66 -9.77 -9.93 -9.98 -10.01 -10.03 -10.04 -10.05 -10.03 -10.01 -9.98 -9.96 -9.96 -9.96 -10.0 -10.03 -10.05 -10.08 -10.1 -10.13 -10.19 -10.25 -10.3 -10.35 -10.38 -10.39 -10.39 -10.36 -10.31 -10.25 -10.18 -10.11 -10.0 -9.96 -9.93 -9.91 -9.88 -9.86 -9.86 -9.88 -9.91 -9.95 -9.98 -10.01 -10.07 -10.09 -10.11 -10.14 -10.18 -10.23 -10.3 -10.29 -10.28 -10.26 -10.26 -10.35 -10.39 -10.44 -10.5 -10.57 -10.64 -10.75 -10.78 -10.77 -10.75 -10.74 -10.73 -10.72 -10.73 -10.75 -10.77 -10.8 -10.82 -10.84 -10.85 -10.87 -10.89 -10.92 -10.94 -10.99 -11.03 -11.07 -11.11 -11.14 -11.16 -11.55 -15.63 -22.1 -25.81 -26.18 -25.47 -16.07 -12.3 -11.28 -11.27 -11.23 -11.17 -11.0 -10.94 -10.91 -10.91 -10.92 -10.96 -10.96 -10.95 -10.95 -10.94 -10.95 -10.98 -11.0 -11.01 -11.02 -11.03 -11.04 -11.08 -11.1 -12.63 -14.86 -17.77 -21.8 -24.83 -21.54 -17.42 -14.51 -12.32 -11.23 -10.8 -10.77 -10.73 -10.69 -10.63 -10.57 -10.86 -10.84 -10.83 -10.44 -10.44 -10.43 -10.4 -10.36 -10.33 -10.3 -10.3 -10.33 -10.44 -10.51 -10.57 -10.62 -10.66 -10.69 -10.77 -10.82 -10.88 -10.93 -10.95 -10.87 -10.79 -10.69 -10.59 -10.48 -10.28 -9.76 -9.66 -9.61 -9.58 -9.56 -9.5 -9.2 -8.97 -8.72 -8.53 -8.38 -8.2 -7.56 -7.15 -6.82 -6.67 -6.59 -6.54 -6.22 -5.94 -5.65 -5.41 -5.23 -5.2 -5.5 -5.66 -5.82 -6.3 -9.39 -15.02 -19.36 -20.16 -19.74 -16.14 -11.52 -8.86 -8.64 -8.74 -8.85 -9.0 -9.15 -9.3 -9.54 -9.61 -9.65 -9.67 -9.69 -9.73 -9.76 -9.79 -9.82 -9.84 -9.87 -9.9 -9.9 -9.91 -9.91 -9.92 -9.91 -9.92 -9.92 -9.92 -9.91 -9.9 -9.89 -9.88 -9.87 -9.87 -9.87 -9.87 -9.86 -9.87 -9.9 -9.94 -9.99 -10.06 -10.13 -10.25 -10.29 -10.3 -10.29 -10.28 -10.29 -10.39 -10.47 -10.55 -10.62 -10.66 -10.7 -10.76 -10.78 -10.79 -10.79 -10.8 -10.84 -10.86 -10.88 -10.89 -10.89 -10.9 -10.93 -10.94 -10.96 -10.96 -10.95 -10.92 -10.88 -10.86 -10.84 -10.81 -10.78 -10.73 -10.56 -10.49 -10.47 -10.48 -10.52 -10.57 -10.66 -10.7 -10.74 -10.8 -10.85 -10.89 -10.97 -10.99 -11.0 -11.01 -11.03 -11.06 -11.13 -11.17 -11.21 -11.25 -11.3 -11.34 -11.4 -11.42 -11.42 -11.4 -11.37 -11.34 -11.27 -11.26 -11.29 -11.34 -11.39 -11.52 -11.59 -11.65 -11.66 -11.67 -11.69 -11.79 -11.86 -11.94 -12.02 -12.09 -12.14 -12.18 -12.18 -12.18 -12.18 -12.2 -12.22 -12.28 -12.32 -12.38 -12.44 -12.51 -12.57 -12.67 -12.71 -12.73 -12.76 -12.8 -12.84 -12.93 -12.97 -13.0 -13.05 -13.12 -13.19 -13.28 -13.32 -13.36 -15.17 -18.91 -23.97 -28.68 -28.79 -28.89 -27.22 -23.94 -19.18 -13.99 -13.91 -13.81 -13.71 -13.62 -13.46
-9.75 -9.68 -9.64 -9.59 -9.53 -9.47 -9.43 -9.4 -9.4 -9.4 -9.41 -9.41 -9.4 -9.38 -9.37 -9.37 -9.37 -9.38 -9.4 -9.43 -9.45 -9.47 -9.5 -9.53 -9.54 -9.55 -9.58 -9.6 -9.64 -9.66 -9.67 -9.6 -9.54 -9.5 -9.45 -9.77 -12.74 -19.8 -18.58 -16.16 -14.08 -12.67 -9.78 -9.42 -9.14 -8.93 -8.84 -8.77 -8.69 -8.71 -8.76 -8.82 -8.86 -8.9 -10.24 -13.29 -14.73 -12.25 -9.47 -9.11 -9.13 -9.14 -9.15 -9.16 -9.16 -9.16 -9.16 -9.15 -9.12 -9.09 -9.05 -9.01 -8.94 -8.92 -8.91 -8.9 -8.9 -8.89 -8.86 -8.86 -8.85 -8.85 -8.85 -8.86 -8.89 -8.91 -8.93 -8.97 -9.04 -9.11 -9.24 -9.32 -9.43 -9.56 -9.68 -9.82 -9.87 -9.91 -9.93 -9.94 -9.95 -9.97 -9.96 -9.94 -9.92 -9.91 -9.91 -9.94 -9.96 -9.98 -10.01 -10.04 -10.07 -10.13 -10.18 -10.24 -10.29 -10.33 -10.35 -10.37 -10.36 -10.34 -10.29 -10.23 -10.15 -10.02 -9.97 -9.93 -9.9 -9.87 -9.85 -9.83 -9.85 -9.88 -9.91 -9.94 -9.97 -10.03 -10.06 -10.08 -10.1 -10.13 -10.15 -10.19 -10.2 -10.21 -10.21 -10.21 -10.29 -10.34 -10.4 -10.48 -10.56 -10.65 -10.78 -10.8 -10.77 -10.73 -10.7 -10.69 -10.69 -10.69 -10.71 -10.73 -10.75 -10.77 -10.79 -10.8 -10.81 -10.82 -10.83 -10.86 -10.93 -10.97 -11.02 -11.08 -11.13 -11.16 -11.59 -15.3 -22.15 -25.85 -26.21 -25.82 -16.4 -12.28 -11.24 -11.23 -11.2 -11.14 -11.01 -10.95 -10.93 -10.92 -10.93 -10.94 -10.94 -10.93 -10.93 -10.93 -10.93 -10.95 -10.97 -10.99 -11.01 -11.03 -11.06 -12.65 -16.72 -21.93 -25.57 -27.06 -25.52 -16.6 -12.94 -10.99 -10.95 -10.91 -10.88 -10.8 -10.74 -10.67 -10.59 -10.51 -10.44 -10.37 -10.36 -10.35 -10.34 -10.34 -10.33 -10.28 -10.26 -10.22 -10.19 -10.16 -10.15 -10.21 -10.27 -10.31 -10.34 -10.36 -10.38 -10.44 -10.51 -10.6 -10.7 -10.79 -10.89 -10.92 -10.93 -10.91 -10.86 -10.72 -10.24 -10.14 -10.11 -10.07 -9.99 -9.87 -9.48 -9.27 -9.04 -8.79 -8.55 -8.25 -7.47 -7.08 -6.79 -6.71 -6.77 -6.89 -6.59 -6.18 -5.83 -5.58 -5.46 -5.44 -5.64 -6.55 -7.95 -8.66 -10.38 -14.84 -19.07 -19.85 -20.63 -19.99 -16.96 -12.87 -8.66 -8.8 -8.94 -9.09 -9.24 -9.37 -9.55 -9.6 -9.64 -9.66 -9.68 -9.72 -9.75 -9.79 -9.82 -9.85 -9.87 -9.9 -9.9 -9.89 -9.88 -9.88 -9.88 -9.9 -9.9 -9.89 -9.88 -9.87 -9.85 -9.82 -9.81 -9.81 -9.81 -9.83 -9.84 -9.87 -9.9 -9.94 -9.98 -10.04 -10.1 -10.22 -10.27 -10.29 -10.29 -10.29 -10.29 -10.36 -10.43 -10.53 -10.62 -10.69 -10.73 -10.77 -10.77 -10.76 -10.75 -10.74 -10.74 -10.76 -10.77 -10.79 -10.8 -10.82 -10.86 -10.89 -10.91 -10.92 -10.91 -10.89 -10.86 -10.84 -10.81 -10.79 -10.75 -10.71 -10.56 -10.49 -10.46 -10.45 -10.46 -10.48 -10.54 -10.59 -10.64 -10.7 -10.77 -10.83 -10.94 -10.97 -10.97 -10.98 -11.0 -11.03 -11.11 -11.16 -11.2 -11.24 -11.28 -11.32 -11.39 -11.42 -11.44 -11.45 -11.44 -11.41 -11.35 -11.34 -11.36 -11.4 -11.44 -11.53 -11.57 -11.6 -11.61 -11.62 -11.64 -11.75 -11.84 -11.94 -12.02 -12.09 -12.15 -12.2 -12.2 -12.2 -12.2 -12.21 -12.23 -12.28 -12.31 -12.36 -12.43 -12.49 -12.56 -12.66 -12.7 -12.73 -12.77 -12.81 -12.86 -12.92 -12.94 -12.97 -13.0 -13.04 -13.09 -13.14 -13.17 -13.21 -13.27 -14.05 -17.4 -26.83 -28.69 -28.8 -28.91 -29.0 -27.31 -19.18 -15.79 -13.94 -13.84 -13.71 -13.53
-9.71 -9.65 -9.61 -9.56 -9.49 -9.43 -9.39 -9.37 -9.37 -9.38 -9.39 -9.39 -9.39 -9.38 -9.37 -9.37 -9.38 -9.39 -9.4 -9.42 -9.44 -9.45 -9.47 -9.49 -9.5 -9.51 -9.54 -9.58 -9.62 -9.65 -9.67 -9.62 -9.56 -9.52 -9.48 -9.8 -13.11 -21.95 -21.62 -20.13 -18.93 -17.83 -13.66 -12.45 -11.0 -9.69 -9.25 -9.17 -8.73 -8.74 -8.79 -8.84 -8.88 -8.91 -10.57 -14.85 -17.74 -14.91 -10.45 -9.07 -9.09 -9.1 -9.11 -9.12 -9.13 -9.13 -9.13 -9.11 -9.08 -9.05 -9.02 -8.98 -8.91 -8.89 -8.88 -8.88 -8.87 -8.87 -8.86 -8.85 -8.85 -8.85 -8.85 -8.85 -8.88 -8.9 -8.93 -8.97 -9.03 -9.09 -9.21 -9.28 -9.37 -9.49 -9.62 -9.78 -9.83 -9.87 -9.89 -9.9 -9.91 -9.93 -9.92 -9.9 -9.88 -9.88 -9.89 -9.91 -9.93 -9.95 -9.97 -10.0 -10.03 -10.11 -10.16 -10.21 -10.26 -10.3 -10.33 -10.35 -10.35 -10.34 -10.3 -10.24 -10.17 -10.03 -9.98 -9.93 -9.89 -9.87 -9.84 -9.83 -9.85 -9.88 -9.9 -9.93 -9.96 -10.02 -10.04 -10.07 -10.09 -10.11 -10.12 -10.16 -10.17 -10.18 -10.18 -10.2 -10.27 -10.32 -10.38 -10.47 -10.57 -10.66 -10.8 -10.81 -10.77 -10.72 -10.69 -10.68 -10.68 -10.68 -10.7 -10.71 -10.73 -10.75 -10.77 -10.78 -10.78 -10.79 -10.8 -10.83 -10.9 -10.94 -11.0 -11.06 -11.12 -11.17 -11.61 -15.33 -22.17 -25.86 -26.22 -25.82 -15.52 -11.58 -11.22 -11.21 -11.18 -11.13 -11.0 -10.95 -10.93 -10.92 -10.93 -10.93 -10.93 -10.92 -10.92 -10.92 -10.92 -10.94 -10.96 -10.98 -11.0 -11.03 -11.07 -14.48 -20.84 -25.61 -27.54 -25.61 -21.94 -13.04 -11.08 -11.03 -10.98 -10.94 -10.89 -10.79 -10.73 -10.65 -10.55 -10.47 -10.4 -10.35 -10.33 -10.32 -10.31 -10.29 -10.27 -10.23 -10.21 -10.18 -10.15 -10.11 -10.09 -10.12 -10.16 -10.19 -10.22 -10.24 -10.25 -10.32 -10.4 -10.51 -10.63 -10.74 -10.91 -10.96 -10.99 -10.99 -10.93 -10.8 -10.36 -10.26 -10.21 -10.13 -10.01 -9.85 -9.47 -9.27 -9.02 -8.75 -8.52 -8.24 -7.46 -7.1 -6.88 -6.82 -6.9 -7.03 -6.66 -6.22 -5.86 -5.63 -5.53 -5.53 -6.01 -7.4 -10.08 -11.74 -13.2 -15.84 -18.94 -19.7 -20.47 -21.01 -19.76 -16.11 -8.97 -8.81 -8.95 -9.09 -9.23 -9.37 -9.55 -9.6 -9.63 -9.66 -9.68 -9.72 -9.75 -9.78 -9.82 -9.84 -9.87 -9.9 -9.9 -9.89 -9.87 -9.87 -9.87 -9.88 -9.89 -9.88 -9.87 -9.85 -9.82 -9.79 -9.78 -9.78 -9.79 -9.81 -9.84 -9.88 -9.9 -9.93 -9.97 -10.03 -10.09 -10.21 -10.26 -10.28 -10.29 -10.29 -10.3 -10.36 -10.42 -10.5 -10.58 -10.66 -10.72 -10.77 -10.77 -10.75 -10.73 -10.71 -10.7 -10.71 -10.72 -10.74 -10.77 -10.79 -10.83 -10.86 -10.89 -10.9 -10.9 -10.88 -10.85 -10.83 -10.8 -10.77 -10.74 -10.7 -10.56 -10.49 -10.46 -10.44 -10.44 -10.44 -10.49 -10.53 -10.59 -10.65 -10.72 -10.8 -10.92 -10.95 -10.95 -10.96 -10.99 -11.02 -11.1 -11.15 -11.2 -11.24 -11.28 -11.31 -11.39 -11.42 -11.45 -11.47 -11.46 -11.44 -11.38 -11.37 -11.39 -11.41 -11.45 -11.52 -11.56 -11.58 -11.59 -11.61 -11.64 -11.74 -11.82 -11.92 -12.01 -12.08 -12.13 -12.2 -12.2 -12.2 -12.21 -12.22 -12.24 -12.29 -12.31 -12.36 -12.41 -12.48 -12.55 -12.66 -12.7 -12.74 -12.78 -12.83 -12.87 -12.93 -12.94 -12.96 -12.99 -13.03 -13.06 -13.11 -13.13 -13.17 -13.22 -13.29 -14.88 -23.46 -26.91 -28.77 -28.87 -28.97 -29.04 -23.97 -19.14 -15.6 -13.86 -13.74 -13.56
-9.67 -9.62 -9.58 -9.52 -9.45 -9.39 -9.36 -9.35 -9.35 -9.36 -9.37 -9.37 -9.38 -9.37 -9.37 -9.37 -9.38 -9.39 -9.4 -9.42 -9.42 -9.44 -9.45 -9.47 -9.47 -9.49 -9.52 -9.56 -9.6 -9.64 -9.67 -9.63 -9.59 -9.55 -9.5 -9.69 -11.77 -17.71 -17.93 -17.77 -18.14 -18.31 -16.65 -16.56 -15.4 -13.62 -12.71 -11.87 -9.14 -8.78 -8.81 -8.85 -8.9 -8.93 -10.57 -15.33 -19.77 -17.65 -12.34 -9.42 -9.06 -9.07 -9.09 -9.1 -9.11 -9.11 -9.1 -9.08 -9.05 -9.03 -8.99 -8.96 -8.9 -8.87 -8.86 -8.85 -8.85 -8.85 -8.85 -8.85 -8.85 -8.85 -8.85 -8.85 -8.88 -8.9 -8.93 -8.97 -9.02 -9.07 -9.18 -9.24 -9.33 -9.45 -9.56 -9.75 -9.81 -9.84 -9.86 -9.87 -9.88 -9.89 -9.89 -9.87 -9.86 -9.86 -9.87 -9.89 -9.91 -9.93 -9.94 -9.97 -10.0 -10.09 -10.14 -10.19 -10.23 -10.26 -10.3 -10.34 -10.35 -10.34 -10.3 -10.24 -10.17 -10.04 -9.99 -9.94 -9.9 -9.87 -9.85 -9.84 -9.85 -9.87 -9.9 -9.92 -9.95 -10.0 -10.03 -10.05 -10.07 -10.08 -10.1 -10.13 -10.14 -10.16 -10.17 -10.18 -10.25 -10.3 -10.37 -10.46 -10.57 -10.67 -10.81 -10.82 -10.78 -10.72 -10.69 -10.67 -10.68 -10.69 -10.7 -10.71 -10.73 -10.74 -10.76 -10.77 -10.77 -10.77 -10.78 -10.81 -10.89 -10.93 -10.99 -11.06 -11.13 -11.18 -11.64 -15.35 -22.19 -25.88 -26.22 -25.49 -14.91 -11.56 -11.19 -11.18 -11.15 -11.12 -11.0 -10.95 -10.93 -10.92 -10.92 -10.92 -10.92 -10.91 -10.91 -10.91 -10.91 -10.93 -10.94 -10.96 -10.98 -11.02 -11.07 -15.6 -22.68 -27.16 -25.68 -22.02 -16.79 -11.16 -11.1 -11.05 -11.0 -10.95 -10.89 -10.77 -10.7 -10.62 -10.53 -10.45 -10.38 -10.33 -10.32 -10.3 -10.28 -10.25 -10.23 -10.2 -10.18 -10.16 -10.12 -10.08 -10.05 -10.04 -10.06 -10.09 -10.12 -10.13 -10.14 -10.23 -10.33 -10.45 -10.57 -10.7 -10.93 -11.0 -11.03 -11.04 -10.99 -10.85 -10.43 -10.33 -10.25 -10.13 -9.96 -9.77 -9.44 -9.26 -9.0 -8.71 -8.48 -8.22 -7.51 -7.18 -6.97 -6.93 -7.0 -7.09 -6.65 -6.2 -5.86 -5.67 -5.61 -5.64 -5.86 -7.05 -9.67 -12.61 -15.05 -17.11 -18.81 -19.52 -20.25 -20.82 -20.84 -18.42 -10.19 -9.13 -8.94 -9.07 -9.21 -9.35 -9.54 -9.59 -9.63 -9.65 -9.67 -9.72 -9.75 -9.78 -9.81 -9.84 -9.86 -9.89 -9.89 -9.88 -9.87 -9.86 -9.86 -9.87 -9.87 -9.87 -9.86 -9.83 -9.81 -9.77 -9.76 -9.76 -9.77 -9.8 -9.83 -9.88 -9.9 -9.93 -9.97 -10.02 -10.08 -10.2 -10.24 -10.27 -10.28 -10.28 -10.29 -10.35 -10.4 -10.47 -10.55 -10.63 -10.71 -10.77 -10.76 -10.74 -10.72 -10.69 -10.68 -10.68 -10.7 -10.72 -10.74 -10.76 -10.81 -10.84 -10.87 -10.89 -10.88 -10.87 -10.84 -10.81 -10.79 -10.76 -10.72 -10.69 -10.57 -10.51 -10.47 -10.44 -10.42 -10.41 -10.45 -10.49 -10.55 -10.62 -10.69 -10.77 -10.89 -10.92 -10.92 -10.93 -10.96 -11.01 -11.09 -11.14 -11.19 -11.23 -11.27 -11.31 -11.38 -11.42 -11.45 -11.48 -11.48 -11.46 -11.4 -11.4 -11.4 -11.42 -11.45 -11.52 -11.54 -11.56 -11.58 -11.6 -11.63 -11.74 -11.82 -11.9 -11.99 -12.06 -12.12 -12.19 -12.21 -12.21 -12.22 -12.23 -12.24 -12.29 -12.32 -12.36 -12.41 -12.47 -12.54 -12.66 -12.71 -12.75 -12.79 -12.83 -12.88 -12.94 -12.95 -12.97 -12.99 -13.02 -13.05 -13.08 -13.11 -13.15 -13.2 -13.27 -13.34 -18.65 -23.55 -27.0 -28.86 -28.95 -29.02 -27.3 -23.59 -18.52 -14.93 -13.78 -13.63
-9.63 -9.58 -9.53 -9.47 -9.41 -9.36 -9.34 -9.33 -9.33 -9.34 -9.35 -9.36 -9.36 -9.37 -9.37 -9.37 -9.38 -9.39 -9.4 -9.41 -9.41 -9.42 -9.43 -9.45 -9.46 -9.48 -9.51 -9.54 -9.59 -9.63 -9.66 -9.65 -9.61 -9.56 -9.51 -9.46 -10.08 -12.17 -12.14 -12.11 -12.4 -12.89 -14.27 -16.0 -16.56 -16.05 -16.38 -16.33 -12.24 -10.2 -8.83 -8.87 -8.91 -8.94 -10.57 -15.21 -20.77 -19.99 -14.58 -10.07 -9.04 -9.06 -9.07 -9.08 -9.09 -9.09 -9.08 -9.06 -9.03 -9.01 -8.98 -8.95 -8.88 -8.86 -8.84 -8.83 -8.83 -8.83 -8.83 -8.84 -8.84 -8.84 -8.84 -8.85 -8.87 -8.89 -8.93 -8.97 -9.01 -9.06 -9.15 -9.22 -9.31 -9.41 -9.52 -9.72 -9.78 -9.82 -9.84 -9.85 -9.86 -9.86 -9.86 -9.84 -9.83 -9.83 -9.85 -9.88 -9.89 -9.9 -9.92 -9.94 -9.97 -10.07 -10.12 -10.16 -10.19 -10.23 -10.27 -10.34 -10.35 -10.34 -10.3 -10.25 -10.18 -10.04 -9.99 -9.94 -9.9 -9.87 -9.85 -9.85 -9.86 -9.87 -9.9 -9.92 -9.95 -9.99 -10.01 -10.03 -10.05 -10.06 -10.08 -10.12 -10.13 -10.14 -10.15 -10.17 -10.24 -10.29 -10.36 -10.46 -10.57 -10.68 -10.82 -10.83 -10.79 -10.73 -10.7 -10.68 -10.69 -10.69 -10.7 -10.71 -10.73 -10.74 -10.76 -10.76 -10.76 -10.76 -10.77 -10.8 -10.88 -10.94 -11.0 -11.07 -11.14 -11.21 -11.66 -15.38 -22.22 -25.89 -26.1 -24.92 -14.34 -11.41 -11.16 -11.15 -11.13 -11.1 -11.0 -10.95 -10.92 -10.92 -10.92 -10.91 -10.91 -10.91 -10.9 -10.9 -10.9 -10.92 -10.93 -10.95 -10.97 -11.0 -11.06 -15.61 -23.1 -25.27 -22.08 -16.85 -13.17 -11.17 -11.12 -11.06 -11.01 -10.94 -10.88 -10.74 -10.67 -10.59 -10.51 -10.43 -10.37 -10.32 -10.3 -10.28 -10.25 -10.23 -10.2 -10.17 -10.16 -10.15 -10.11 -10.07 -10.02 -9.97 -9.98 -10.01 -10.03 -10.05 -10.05 -10.16 -10.27 -10.4 -10.53 -10.67 -10.94 -11.02 -11.07 -11.08 -11.03 -10.9 -10.48 -10.37 -10.26 -10.12 -9.93 -9.71 -9.4 -9.25 -8.99 -8.69 -8.44 -8.19 -7.58 -7.29 -7.1 -7.04 -7.09 -7.15 -6.65 -6.18 -5.86 -5.72 -5.71 -5.79 -6.02 -6.16 -7.87 -11.21 -15.12 -17.6 -18.71 -19.35 -20.03 -20.63 -21.06 -20.18 -14.13 -11.9 -10.19 -9.39 -9.18 -9.32 -9.53 -9.58 -9.61 -9.64 -9.66 -9.71 -9.74 -9.78 -9.81 -9.83 -9.85 -9.88 -9.89 -9.88 -9.87 -9.86 -9.86 -9.86 -9.86 -9.86 -9.85 -9.82 -9.79 -9.76 -9.75 -9.75 -9.76 -9.78 -9.81 -9.87 -9.9 -9.93 -9.97 -10.01 -10.07 -10.18 -10.23 -10.25 -10.26 -10.26 -10.27 -10.33 -10.38 -10.46 -10.54 -10.62 -10.7 -10.76 -10.76 -10.74 -10.71 -10.68 -10.66 -10.66 -10.68 -10.7 -10.72 -10.74 -10.79 -10.82 -10.85 -10.87 -10.87 -10.86 -10.82 -10.8 -10.78 -10.75 -10.72 -10.68 -10.59 -10.53 -10.48 -10.44 -10.41 -10.4 -10.42 -10.47 -10.53 -10.6 -10.67 -10.74 -10.86 -10.88 -10.89 -10.9 -10.94 -10.99 -11.09 -11.14 -11.18 -11.23 -11.27 -11.3 -11.37 -11.41 -11.45 -11.48 -11.48 -11.47 -11.42 -11.41 -11.42 -11.44 -11.46 -11.52 -11.53 -11.55 -11.57 -11.59 -11.63 -11.74 -11.82 -11.9 -11.98 -12.05 -12.11 -12.19 -12.21 -12.21 -12.22 -12.23 -12.25 -12.29 -12.32 -12.35 -12.4 -12.46 -12.53 -12.65 -12.71 -12.76 -12.8 -12.84 -12.89 -12.94 -12.96 -12.97 -12.99 -13.02 -13.04 -13.06 -13.09 -13.14 -13.2 -13.27 -13.35 -15.3 -18.74 -23.63 -27.08 -28.93 -29.0 -28.92 -26.71 -21.94 -16.78 -14.07 -13.7
-9.59 -9.54 -9.49 -9.43 -9.38 -9.34 -9.32 -9.3 -9.3 -9.31 -9.33 -9.34 -9.35 -9.37 -9.37 -9.37 -9.39 -9.4 -9.4 -9.4 -9.4 -9.41 -9.42 -9.43 -9.44 -9.48 -9.5 -9.53 -9.57 -9.61 -9.65 -9.65 -9.62 -9.58 -9.52 -9.47 -9.42 -9.6 -9.58 -9.55 -9.52 -9.59 -10.2 -11.63 -12.58 -13.1 -14.7 -17.42 -17.75 -13.97 -10.63 -8.9 -8.93 -8.96 -10.24 -14.65 -20.68 -21.81 -16.97 -11.52 -9.04 -9.05 -9.06 -9.07 -9.07 -9.07 -9.06 -9.04 -9.02 -8.99 -8.96 -8.93 -8.87 -8.84 -8.81 -8.8 -8.8 -8.8 -8.81 -8.82 -8.83 -8.83 -8.84 -8.84 -8.86 -8.88 -8.92 -8.96 -9.0 -9.03 -9.11 -9.18 -9.27 -9.37 -9.47 -9.69 -9.76 -9.8 -9.82 -9.83 -9.83 -9.82 -9.82 -9.81 -9.8 -9.81 -9.83 -9.85 -9.86 -9.87 -9.88 -9.91 -9.95 -10.04 -10.09 -10.13 -10.17 -10.21 -10.26 -10.33 -10.34 -10.33 -10.3 -10.25 -10.19 -10.06 -10.0 -9.94 -9.9 -9.88 -9.86 -9.86 -9.86 -9.87 -9.9 -9.92 -9.95 -9.99 -10.0 -10.02 -10.03 -10.05 -10.07 -10.1 -10.11 -10.12 -10.14 -10.16 -10.22 -10.29 -10.36 -10.46 -10.58 -10.7 -10.84 -10.84 -10.8 -10.75 -10.71 -10.69 -10.69 -10.69 -10.7 -10.72 -10.73 -10.75 -10.77 -10.77 -10.76 -10.76 -10.77 -10.8 -10.88 -10.95 -11.02 -11.1 -11.17 -11.24 -11.69 -15.53 -22.24 -25.9 -26.11 -24.58 -13.98 -11.39 -11.14 -11.12 -11.1 -11.08 -10.99 -10.95 -10.93 -10.92 -10.91 -10.91 -10.91 -10.9 -10.9 -10.9 -10.9 -10.91 -10.92 -10.93 -10.95 -10.98 -11.04 -15.61 -21.2 -21.65 -16.89 -13.24 -11.28 -11.19 -11.14 -11.08 -11.01 -10.93 -10.85 -10.71 -10.64 -10.56 -10.48 -10.4 -10.35 -10.29 -10.28 -10.25 -10.22 -10.2 -10.17 -10.15 -10.14 -10.13 -10.11 -10.06 -10.0 -9.91 -9.9 -9.92 -9.95 -9.97 -9.98 -10.1 -10.22 -10.36 -10.5 -10.65 -10.94 -11.05 -11.11 -11.12 -11.08 -10.96 -10.58 -10.44 -10.32 -10.16 -9.96 -9.72 -9.37 -9.2 -8.94 -8.64 -8.39 -8.15 -7.66 -7.43 -7.26 -7.21 -7.23 -7.28 -6.69 -6.2 -5.9 -5.8 -5.85 -5.95 -6.17 -7.06 -8.97 -12.05 -15.41 -17.55 -18.59 -19.2 -19.87 -20.48 -20.93 -21.32 -19.03 -16.85 -14.51 -12.2 -10.44 -9.64 -9.86 -9.92 -9.95 -9.98 -9.64 -9.69 -9.73 -9.77 -9.8 -9.82 -9.84 -9.88 -9.88 -9.88 -9.87 -9.86 -9.85 -9.85 -9.85 -9.85 -9.84 -9.81 -9.79 -9.74 -9.73 -9.73 -9.74 -9.77 -9.8 -9.87 -9.9 -9.93 -9.97 -10.01 -10.06 -10.17 -10.21 -10.24 -10.24 -10.24 -10.26 -10.33 -10.39 -10.47 -10.55 -10.63 -10.69 -10.75 -10.75 -10.73 -10.7 -10.68 -10.65 -10.65 -10.67 -10.68 -10.7 -10.72 -10.76 -10.79 -10.83 -10.85 -10.85 -10.84 -10.8 -10.78 -10.76 -10.73 -10.7 -10.67 -10.6 -10.55 -10.49 -10.44 -10.4 -10.38 -10.4 -10.45 -10.52 -10.58 -10.65 -10.72 -10.82 -10.84 -10.86 -10.88 -10.92 -10.98 -11.08 -11.13 -11.17 -11.22 -11.26 -11.3 -11.37 -11.41 -11.45 -11.48 -11.49 -11.48 -11.44 -11.43 -11.43 -11.45 -11.47 -11.51 -11.52 -11.54 -11.56 -11.59 -11.62 -11.73 -11.81 -11.89 -11.96 -12.03 -12.1 -12.19 -12.21 -12.22 -12.23 -12.23 -12.25 -12.29 -12.31 -12.35 -12.4 -12.46 -12.52 -12.65 -12.72 -12.77 -12.81 -12.85 -12.9 -12.95 -12.96 -12.97 -12.99 -13.01 -13.03 -13.05 -13.09 -13.15 -13.23 -13.3 -13.38 -13.54 -15.38 -18.82 -23.71 -27.14 -28.97 -29.04 -28.31 -24.99 -19.69 -15.61 -13.76
-9.55 -9.49 -9.44 -9.39 -9.35 -9.32 -9.29 -9.27 -9.27 -9.28 -9.3 -9.32 -9.34 -9.37 -9.37 -9.38 -9.39 -9.4 -9.4 -9.39 -9.39 -9.4 -9.4 -9.42 -9.43 -9.47 -9.5 -9.53 -9.56 -9.6 -9.63 -9.65 -9.63 -9.59 -9.54 -9.49 -9.44 -9.39 -9.37 -9.35 -9.32 -9.29 -9.22 -9.43 -9.5 -9.46 -10.81 -14.13 -20.44 -18.84 -14.04 -10.71 -8.97 -8.99 -9.7 -13.75 -20.26 -22.92 -19.01 -12.76 -9.04 -9.06 -9.06 -9.06 -9.06 -9.06 -9.04 -9.03 -9.0 -8.98 -8.95 -8.92 -8.86 -8.82 -8.79 -8.77 -8.77 -8.77 -8.78 -8.8 -8.81 -8.81 -8.82 -8.82 -8.84 -8.87 -8.9 -8.93 -8.97 -9.0 -9.07 -9.13 -9.21 -9.31 -9.41 -9.64 -9.72 -9.77 -9.79 -9.79 -9.79 -9.78 -9.78 -9.77 -9.78 -9.79 -9.8 -9.82 -9.82 -9.82 -9.84 -9.87 -9.91 -10.02 -10.07 -10.11 -10.15 -10.19 -10.24 -10.32 -10.33 -10.31 -10.29 -10.25 -10.2 -10.08 -10.01 -9.95 -9.91 -9.88 -9.87 -9.86 -9.87 -9.87 -9.9 -9.93 -9.96 -9.99 -10.0 -10.01 -10.02 -10.04 -10.06 -10.09 -10.1 -10.11 -10.12 -10.14 -10.21 -10.27 -10.36 -10.48 -10.6 -10.73 -10.87 -10.87 -10.82 -10.77 -10.73 -10.71 -10.7 -10.7 -10.7 -10.72 -10.74 -10.76 -10.77 -10.77 -10.77 -10.77 -10.78 -10.8 -10.89 -10.97 -11.06 -11.14 -11.22 -11.27 -12.05 -16.11 -22.59 -25.91 -26.11 -23.9 -13.28 -11.36 -11.11 -11.1 -11.08 -11.06 -10.99 -10.95 -10.93 -10.92 -10.91 -10.9 -10.9 -10.9 -10.89 -10.89 -10.89 -10.89 -10.9 -10.92 -10.94 -10.97 -11.03 -14.1 -17.57 -16.46 -13.26 -11.33 -11.3 -11.2 -11.15 -11.08 -11.01 -10.91 -10.82 -10.67 -10.61 -10.54 -10.45 -10.37 -10.32 -10.26 -10.24 -10.21 -10.19 -10.16 -10.14 -10.12 -10.12 -10.12 -10.11 -10.07 -10.01 -9.89 -9.87 -9.87 -9.9 -9.92 -9.94 -10.08 -10.19 -10.31 -10.46 -10.62 -10.93 -11.05 -11.13 -11.16 -11.12 -11.02 -10.68 -10.53 -10.39 -10.21 -10.01 -9.77 -9.37 -9.15 -8.86 -8.58 -8.34 -8.13 -7.76 -7.6 -7.47 -7.42 -7.43 -7.42 -6.73 -6.24 -5.96 -5.91 -6.0 -6.12 -6.59 -8.72 -12.13 -15.18 -16.96 -17.76 -18.48 -19.09 -19.76 -20.34 -20.76 -21.16 -21.76 -21.13 -19.48 -17.2 -14.83 -13.45 -13.38 -13.46 -13.5 -12.55 -10.95 -9.67 -9.71 -9.75 -9.79 -9.82 -9.84 -9.87 -9.88 -9.88 -9.87 -9.86 -9.84 -9.83 -9.84 -9.84 -9.83 -9.81 -9.78 -9.74 -9.72 -9.72 -9.73 -9.75 -9.78 -9.85 -9.89 -9.93 -9.97 -10.01 -10.05 -10.16 -10.2 -10.22 -10.23 -10.22 -10.24 -10.33 -10.41 -10.5 -10.57 -10.63 -10.68 -10.73 -10.73 -10.72 -10.7 -10.67 -10.64 -10.64 -10.65 -10.67 -10.68 -10.69 -10.73 -10.76 -10.8 -10.82 -10.82 -10.81 -10.78 -10.76 -10.74 -10.71 -10.68 -10.65 -10.6 -10.56 -10.5 -10.45 -10.4 -10.37 -10.38 -10.43 -10.49 -10.56 -10.62 -10.69 -10.78 -10.8 -10.83 -10.86 -10.91 -10.96 -11.06 -11.11 -11.16 -11.21 -11.25 -11.29 -11.36 -11.4 -11.44 -11.47 -11.49 -11.48 -11.45 -11.45 -11.45 -11.46 -11.47 -11.5 -11.51 -11.52 -11.55 -11.58 -11.62 -11.72 -11.79 -11.87 -11.94 -12.01 -12.07 -12.18 -12.21 -12.22 -12.23 -12.24 -12.25 -12.29 -12.32 -12.35 -12.39 -12.45 -12.51 -12.65 -12.72 -12.78 -12.83 -12.87 -12.91 -12.95 -12.96 -12.97 -12.98 -13.0 -13.01 -13.03 -13.09 -13.18 -13.26 -13.34 -13.39 -13.53 -13.61 -15.45 -18.88 -23.75 -27.17 -29.01 -29.01 -27.46 -23.81 -18.98 -13.81
-9.45 -9.4 -9.37 -9.33 -9.29 -9.27 -9.25 -9.22 -9.21 -9.22 -9.24 -9.27 -9.31 -9.36 -9.37 -9.37 -9.39 -9.4 -9.4 -9.4 -9.39 -9.39 -9.39 -9.39 -9.41 -9.46 -9.49 -9.52 -9.55 -9.58 -9.6 -9.63 -9.62 -9.59 -9.57 -9.54 -9.51 -9.46 -9.44 -9.43 -9.41 -9.39 -9.32 -9.26 -9.21 -9.2 -9.19 -9.17 -14.27 -19.04 -20.59 -17.95 -12.37 -9.45 -9.44 -13.13 -19.72 -23.3 -20.65 -14.62 -9.09 -9.11 -9.11 -9.1 -9.09 -9.07 -9.04 -9.02 -9.0 -8.97 -8.94 -8.91 -8.84 -8.8 -8.76 -8.73 -8.71 -8.7 -8.71 -8.72 -8.74 -8.74 -8.75 -8.76 -8.78 -8.79 -8.81 -8.84 -8.87 -8.9 -8.95 -9.0 -9.08 -9.17 -9.29 -9.53 -9.62 -9.67 -9.71 -9.72 -9.72 -9.71 -9.71 -9.71 -9.71 -9.72 -9.73 -9.73 -9.73 -9.74 -9.75 -9.78 -9.82 -9.94 -10.0 -10.04 -10.08 -10.13 -10.18 -10.23 -10.24 -10.24 -10.24 -10.24 -10.22 -10.12 -10.05 -9.99 -9.93 -9.9 -9.88 -9.89 -9.89 -9.9 -9.92 -9.94 -9.97 -10.0 -10.0 -10.0 -10.01 -10.02 -10.03 -10.05 -10.06 -10.07 -10.08 -10.09 -10.16 -10.23 -10.34 -10.5 -10.67 -10.8 -10.95 -10.94 -10.88 -10.82 -10.78 -10.76 -10.72 -10.71 -10.71 -10.73 -10.75 -10.78 -10.79 -10.78 -10.77 -10.77 -10.77 -10.79 -10.9 -11.01 -11.13 -11.23 -11.3 -11.34 -13.79 -18.97 -24.17 -26.04 -25.51 -21.4 -11.43 -11.04 -11.04 -11.04 -11.03 -11.01 -10.95 -10.93 -10.91 -10.91 -10.9 -10.89 -10.88 -10.88 -10.87 -10.86 -10.85 -10.86 -10.87 -10.88 -10.89 -10.92 -10.97 -11.12 -11.61 -11.27 -11.32 -11.33 -11.32 -11.21 -11.14 -11.06 -10.98 -10.89 -10.79 -10.64 -10.59 -10.51 -10.43 -10.34 -10.25 -10.14 -10.11 -10.1 -10.09 -10.08 -10.06 -10.07 -10.1 -10.13 -10.17 -10.18 -10.16 -10.06 -10.02 -10.0 -9.99 -9.99 -10.0 -10.11 -10.19 -10.28 -10.4 -10.55 -10.84 -10.95 -11.03 -11.05 -11.03 -10.95 -10.69 -10.56 -10.42 -10.23 -10.03 -9.85 -9.46 -9.18 -8.87 -8.61 -8.42 -8.28 -8.08 -7.98 -7.88 -7.78 -7.66 -7.46 -6.66 -6.28 -6.12 -6.14 -6.27 -6.43 -6.55 -7.62 -11.2 -15.26 -17.51 -17.81 -18.39 -18.95 -19.26 -19.77 -20.13 -20.83 -20.99 -19.48 -18.77 -18.95 -18.8 -19.99 -22.97 -23.12 -23.2 -21.91 -19.08 -11.33 -9.66 -9.72 -9.76 -9.79 -9.81 -10.2 -9.85 -9.85 -9.85 -9.84 -9.82 -9.79 -9.79 -9.79 -9.79 -9.78 -9.76 -9.73 -9.71 -9.7 -9.7 -9.7 -9.73 -9.83 -9.88 -9.92 -9.96 -10.0 -10.03 -10.12 -10.16 -10.18 -10.17 -10.16 -10.17 -10.29 -10.38 -10.46 -10.52 -10.56 -10.6 -10.67 -10.68 -10.69 -10.67 -10.66 -10.62 -10.62 -10.62 -10.63 -10.65 -10.66 -10.69 -10.71 -10.74 -10.76 -10.75 -10.74 -10.72 -10.7 -10.68 -10.65 -10.63 -10.61 -10.6 -10.57 -10.52 -10.46 -10.4 -10.36 -10.35 -10.39 -10.44 -10.5 -10.56 -10.62 -10.68 -10.71 -10.74 -10.79 -10.86 -10.92 -11.02 -11.07 -11.12 -11.17 -11.22 -11.26 -11.34 -11.38 -11.43 -11.46 -11.47 -11.47 -11.46 -11.46 -11.46 -11.47 -11.48 -11.49 -11.49 -11.5 -11.53 -11.57 -11.62 -11.72 -11.76 -11.81 -11.88 -11.94 -12.02 -12.15 -12.19 -12.22 -12.24 -12.25 -12.27 -12.31 -12.34 -12.36 -12.39 -12.43 -12.49 -12.64 -12.71 -12.77 -12.82 -12.86 -12.9 -12.95 -12.97 -12.99 -13.01 -13.02 -13.02 -13.01 -13.07 -13.16 -13.25 -13.31 -13.35 -13.47 -13.54 -13.61 -13.68 -15.13 -17.23 -23.79 -27.15 -28.92 -28.54 -25.48 -15.67
-9.39 -9.35 -9.33 -9.3 -9.27 -9.25 -9.23 -9.21 -9.2 -9.21 -9.23 -9.26 -9.3 -9.36 -9.37 -9.38 -9.4 -9.41 -9.42 -9.41 -9.41 -9.4 -9.4 -9.41 -9.42 -9.47 -9.5 -9.52 -9.55 -9.57 -9.59 -9.61 -9.6 -9.58 -9.57 -9.55 -9.54 -9.5 -9.48 -9.46 -9.44 -9.42 -9.34 -9.29 -9.25 -9.24 -9.24 -9.23 -11.0 -14.33 -18.7 -18.72 -14.68 -10.17 -9.48 -12.5 -18.65 -22.91 -22.14 -17.05 -9.37 -9.14 -9.14 -9.12 -9.11 -9.09 -9.05 -9.03 -9.0 -8.98 -8.94 -8.91 -8.83 -8.79 -8.75 -8.72 -8.7 -8.68 -8.68 -8.69 -8.7 -8.71 -8.72 -8.72 -8.74 -8.75 -8.77 -8.78 -8.81 -8.84 -8.88 -8.93 -9.01 -9.11 -9.23 -9.47 -9.56 -9.62 -9.66 -9.68 -9.69 -9.68 -9.67 -9.67 -9.67 -9.68 -9.68 -9.68 -9.69 -9.7 -9.71 -9.74 -9.78 -9.88 -9.94 -10.0 -10.05 -10.09 -10.13 -10.17 -10.18 -10.19 -10.21 -10.22 -10.22 -10.14 -10.08 -10.02 -9.96 -9.92 -9.89 -9.9 -9.9 -9.92 -9.94 -9.96 -9.98 -10.0 -10.0 -10.0 -10.01 -10.01 -10.01 -10.03 -10.04 -10.05 -10.05 -10.07 -10.14 -10.21 -10.33 -10.5 -10.67 -10.82 -10.98 -10.97 -10.92 -10.86 -10.82 -10.79 -10.74 -10.73 -10.72 -10.73 -10.76 -10.78 -10.79 -10.78 -10.78 -10.78 -10.78 -10.81 -10.93 -11.03 -11.14 -11.23 -11.3 -11.35 -15.46 -21.26 -25.27 -26.14 -24.92 -20.2 -11.28 -11.01 -11.01 -11.01 -11.0 -10.98 -10.93 -10.91 -10.9 -10.89 -10.89 -10.88 -10.87 -10.86 -10.85 -10.84 -10.83 -10.84 -10.84 -10.85 -10.86 -10.89 -10.93 -11.07 -11.16 -11.24 -11.29 -11.32 -11.31 -11.21 -11.13 -11.04 -10.95 -10.86 -10.76 -10.63 -10.58 -10.51 -10.42 -10.33 -10.24 -10.09 -10.05 -10.04 -10.04 -10.03 -10.03 -10.06 -10.1 -10.15 -10.21 -10.25 -10.25 -10.19 -10.15 -10.12 -10.09 -10.08 -10.08 -10.14 -10.21 -10.28 -10.37 -10.5 -10.77 -10.87 -10.93 -10.96 -10.95 -10.88 -10.64 -10.53 -10.41 -10.24 -10.07 -9.91 -9.49 -9.22 -8.94 -8.69 -8.51 -8.39 -8.27 -8.2 -8.08 -7.9 -7.66 -7.36 -6.61 -6.33 -6.24 -6.28 -6.42 -6.55 -6.63 -6.91 -9.2 -13.26 -16.52 -17.92 -18.46 -18.12 -16.99 -16.6 -17.77 -19.54 -18.65 -14.99 -12.76 -12.54 -13.02 -14.76 -19.29 -19.79 -19.88 -20.92 -20.93 -14.57 -11.37 -9.71 -9.75 -9.77 -10.79 -12.82 -11.19 -9.83 -9.83 -9.82 -9.8 -9.77 -9.76 -9.76 -9.76 -9.75 -9.74 -9.72 -9.71 -9.7 -9.69 -9.69 -9.71 -9.81 -9.87 -9.91 -9.95 -9.99 -10.02 -10.11 -10.14 -10.15 -10.14 -10.13 -10.14 -10.25 -10.33 -10.41 -10.47 -10.51 -10.55 -10.63 -10.66 -10.66 -10.66 -10.65 -10.62 -10.61 -10.62 -10.63 -10.64 -10.65 -10.68 -10.7 -10.73 -10.74 -10.74 -10.72 -10.69 -10.67 -10.65 -10.62 -10.6 -10.58 -10.59 -10.58 -10.53 -10.47 -10.41 -10.36 -10.34 -10.38 -10.42 -10.47 -10.52 -10.57 -10.63 -10.66 -10.7 -10.75 -10.82 -10.88 -11.0 -11.05 -11.09 -11.15 -11.2 -11.25 -11.33 -11.37 -11.41 -11.45 -11.46 -11.46 -11.46 -11.46 -11.46 -11.47 -11.47 -11.48 -11.48 -11.49 -11.52 -11.56 -11.62 -11.71 -11.75 -11.79 -11.84 -11.91 -11.98 -12.13 -12.18 -12.21 -12.24 -12.26 -12.28 -12.32 -12.35 -12.37 -12.39 -12.43 -12.49 -12.63 -12.71 -12.77 -12.82 -12.85 -12.89 -12.95 -12.97 -13.0 -13.02 -13.04 -13.03 -13.01 -13.06 -13.14 -13.21 -13.27 -13.31 -13.42 -13.49 -13.57 -13.63 -13.68 -14.09 -18.92 -23.74 -27.12 -28.9 -27.54 -19.05
-9.33 -9.3 -9.28 -9.27 -9.25 -9.23 -9.22 -9.21 -9.21 -9.21 -9.23 -9.26 -9.29 -9.36 -9.38 -9.4 -9.42 -9.43 -9.44 -9.44 -9.44 -9.44 -9.44 -9.45 -9.46 -9.49 -9.51 -9.54 -9.56 -9.57 -9.59 -9.59 -9.58 -9.57 -9.56 -9.56 -9.55 -9.52 -9.51 -9.49 -9.47 -9.45 -9.37 -9.33 -9.3 -9.3 -9.3 -9.3 -9.3 -11.04 -14.56 -17.71 -16.1 -12.06 -9.28 -11.43 -16.85 -21.96 -23.16 -19.12 -9.53 -9.17 -9.17 -9.15 -9.13 -9.11 -9.06 -9.04 -9.01 -8.98 -8.95 -8.91 -8.83 -8.79 -8.75 -8.71 -8.69 -8.67 -8.66 -8.67 -8.67 -8.68 -8.69 -8.7 -8.72 -8.73 -8.73 -8.75 -8.77 -8.79 -8.83 -8.88 -8.96 -9.06 -9.18 -9.39 -9.48 -9.55 -9.6 -9.63 -9.64 -9.64 -9.64 -9.63 -9.63 -9.63 -9.63 -9.64 -9.64 -9.65 -9.67 -9.7 -9.74 -9.83 -9.88 -9.95 -10.01 -10.05 -10.08 -10.12 -10.13 -10.15 -10.18 -10.21 -10.21 -10.16 -10.1 -10.05 -9.99 -9.94 -9.91 -9.91 -9.92 -9.94 -9.96 -9.98 -9.99 -10.01 -10.01 -10.01 -10.01 -10.0 -10.0 -10.01 -10.02 -10.03 -10.03 -10.04 -10.1 -10.19 -10.33 -10.5 -10.67 -10.82 -11.01 -11.01 -10.95 -10.89 -10.85 -10.82 -10.75 -10.73 -10.73 -10.73 -10.75 -10.78 -10.79 -10.79 -10.78 -10.79 -10.8 -10.83 -10.95 -11.05 -11.15 -11.22 -11.29 -11.46 -17.29 -22.92 -26.04 -26.1 -23.75 -18.5 -11.26 -11.0 -11.0 -10.99 -10.98 -10.96 -10.91 -10.9 -10.89 -10.88 -10.87 -10.86 -10.85 -10.84 -10.83 -10.82 -10.82 -10.82 -10.82 -10.82 -10.83 -10.85 -10.89 -11.03 -11.12 -11.19 -11.25 -11.29 -11.29 -11.19 -11.11 -11.01 -10.91 -10.82 -10.73 -10.61 -10.57 -10.51 -10.43 -10.35 -10.25 -10.06 -10.02 -10.0 -10.0 -10.0 -10.01 -10.06 -10.11 -10.18 -10.25 -10.31 -10.33 -10.3 -10.27 -10.23 -10.2 -10.18 -10.15 -10.17 -10.21 -10.27 -10.35 -10.46 -10.69 -10.78 -10.83 -10.85 -10.86 -10.81 -10.59 -10.5 -10.4 -10.27 -10.12 -9.96 -9.5 -9.25 -9.01 -8.8 -8.63 -8.53 -8.46 -8.4 -8.24 -7.97 -7.62 -7.24 -6.61 -6.45 -6.42 -6.48 -6.59 -6.68 -6.69 -6.67 -7.68 -10.43 -14.05 -16.99 -18.32 -16.53 -13.32 -11.45 -12.8 -15.42 -15.25 -11.55 -9.29 -9.05 -9.15 -10.21 -12.99 -13.11 -13.54 -15.24 -18.02 -17.87 -14.62 -11.42 -9.74 -10.12 -12.78 -18.15 -14.81 -11.16 -9.8 -9.8 -9.79 -9.75 -9.73 -9.73 -9.73 -9.72 -9.72 -9.71 -9.71 -9.7 -9.7 -9.69 -9.7 -9.79 -9.85 -9.9 -9.95 -9.98 -10.02 -10.1 -10.13 -10.13 -10.11 -10.09 -10.1 -10.21 -10.29 -10.35 -10.41 -10.46 -10.5 -10.59 -10.62 -10.64 -10.65 -10.64 -10.62 -10.62 -10.62 -10.63 -10.64 -10.65 -10.69 -10.71 -10.73 -10.74 -10.73 -10.72 -10.67 -10.64 -10.62 -10.59 -10.57 -10.55 -10.58 -10.58 -10.54 -10.48 -10.42 -10.37 -10.34 -10.36 -10.4 -10.44 -10.48 -10.52 -10.58 -10.62 -10.66 -10.72 -10.78 -10.85 -10.98 -11.03 -11.07 -11.12 -11.18 -11.23 -11.32 -11.36 -11.4 -11.43 -11.45 -11.46 -11.45 -11.46 -11.46 -11.47 -11.47 -11.47 -11.47 -11.49 -11.52 -11.57 -11.62 -11.71 -11.74 -11.77 -11.81 -11.87 -11.94 -12.11 -12.16 -12.21 -12.24 -12.26 -12.28 -12.33 -12.36 -12.37 -12.39 -12.43 -12.48 -12.62 -12.7 -12.77 -12.81 -12.85 -12.88 -12.95 -12.98 -13.01 -13.04 -13.05 -13.04 -13.01 -13.06 -13.13 -13.19 -13.23 -13.28 -13.38 -13.45 -13.52 -13.57 -13.61 -13.64 -15.49 -18.89 -23.72 -27.11 -28.92 -23.53
