ncols 400
nrows 41
xllcorner 81600
yllcorner 6204075
cellsize 1975.0
NODATA_value -32768
0.0 7.0 30.0 3.0 0.0 39.0 51.0 38.0 53.0 85.0 109.0 134.0 88.0 128.0 166.0 114.0 54.0 -18.0 -22.0 -20.0 -22.0 -25.0 -29.0 -36.0 -38.0 -43.0 -42.0 -46.0 -46.0 -45.0 -43.0 -41.0 -40.0 -39.0 -41.0 -44.0 -46.0 -47.0 -50.0 -54.0 -56.0 -57.0 -58.0 -58.0 -63.0 -61.0 -56.0 -56.0 -44.0 -49.0 -52.0 -53.0 -52.0 -48.0 -51.0 -50.0 -51.0 -51.0 -54.0 -61.0 -60.0 -56.0 -56.0 -54.0 -59.0 -56.0 -52.0 -54.0 -48.0 -53.0 -55.0 -59.0 -62.0 -63.0 -62.0 -61.0 -63.0 -65.0 -68.0 -69.0 -70.0 -67.0 -71.0 -71.0 -68.0 -69.0 -73.0 -71.0 -73.0 -74.0 -73.0 -73.0 -77.0 -75.0 -65.0 -67.0 -74.0 -67.0 -74.0 -76.0 -78.0 -78.0 -82.0 -85.0 -84.0 -83.0 -85.0 -85.0 -86.0 -86.0 -84.0 -87.0 -82.0 -76.0 -76.0 -74.0 -75.0 -74.0 -76.0 -74.0 -80.0 -82.0 -84.0 -92.0 -90.0 -125.0 -88.0 -92.0 -92.0 -92.0 -90.0 -94.0 -85.0 -86.0 -85.0 -84.0 -82.0 -80.0 -80.0 -79.0 -85.0 -79.0 -80.0 -77.0 -83.0 -81.0 -80.0 -80.0 -80.0 -81.0 -79.0 -84.0 -87.0 -91.0 -96.0 -97.0 -91.0 -87.0 -85.0 -83.0 -82.0 -88.0 -85.0 -85.0 -86.0 -81.0 -83.0 -84.0 -85.0 -84.0 -79.0 -81.0 -79.0 -77.0 -75.0 -72.0 -71.0 -72.0 -74.0 -76.0 -74.0 -74.0 -78.0 -78.0 -78.0 -80.0 -78.0 -78.0 -76.0 -73.0 -76.0 -75.0 -74.0 -73.0 -72.0 -71.0 -73.0 -71.0 -69.0 -69.0 -69.0 -70.0 -69.0 -69.0 -69.0 -68.0 -66.0 -66.0 -72.0 -74.0 -71.0 -68.0 -70.0 -69.0 -69.0 -69.0 -70.0 -67.0 -65.0 -69.0 -70.0 -67.0 -65.0 -65.0 -64.0 -64.0 -64.0 -64.0 -64.0 -63.0 -62.0 -61.0 -60.0 -59.0 -59.0 -58.0 -58.0 -59.0 -60.0 -61.0 -61.0 -61.0 -60.0 -58.0 -57.0 -55.0 -54.0 -54.0 -53.0 -53.0 -52.0 -52.0 -51.0 -51.0 -51.0 -51.0 -51.0 -51.0 -52.0 -53.0 -55.0 -56.0 -57.0 -57.0 -56.0 -56.0 -57.0 -57.0 -57.0 -55.0 -54.0 -53.0 -54.0 -62.0 -56.0 -53.0 -52.0 -51.0 -49.0 -46.0 -42.0 -39.0 -39.0 -39.0 -38.0 -39.0 -41.0 -43.0 -43.0 -43.0 -43.0 -42.0 -41.0 -40.0 -40.0 -39.0 -39.0 -39.0 -39.0 -39.0 -39.0 -38.0 -38.0 -37.0 -36.0 -35.0 -34.0 -33.0 -33.0 -34.0 -35.0 -35.0 -35.0 -34.0 -34.0 -33.0 -31.0 -31.0 -31.0 -32.0 -33.0 -34.0 -32.0 -31.0 -30.0 -29.0 -28.0 -27.0 -27.0 -27.0 -27.0 -26.0 -25.0 -22.0 -19.0 -17.0 -14.0 -11.0 -7.0 -2.0 0.0 3.0 4.0 -1.0 3.0 4.0 9.0 14.0 22.0 50.0 44.0 52.0 38.0 76.0 40.0 37.0 38.0 26.0 38.0 41.0 58.0 49.0 45.0 52.0 50.0 54.0 47.0 50.0 51.0 58.0 71.0 77.0 70.0 76.0 86.0 93.0 97.0 106.0 61.0 94.0 96.0 33.0 40.0 27.0 44.0 34.0 28.0 22.0 20.0 20.0 36.0 37.0 20.0 76.0 103.0 93.0 75.0 71.0 60.0 58.0
0.0 4.0 -3.0 -9.0 -2.0 27.0 28.0 36.0 36.0 87.0 70.0 66.0 33.0 0.0 20.0 0.0 -10.0 -36.0 -19.0 -21.0 -24.0 -29.0 -31.0 -30.0 -35.0 -26.0 -20.0 -19.0 -22.0 -27.0 -32.0 -39.0 -38.0 -35.0 -38.0 -41.0 -43.0 -45.0 -49.0 -51.0 -53.0 -55.0 -58.0 -60.0 -61.0 -60.0 -59.0 -51.0 -51.0 -54.0 -48.0 -47.0 -47.0 -51.0 -47.0 -55.0 -58.0 -52.0 -53.0 -57.0 -66.0 -64.0 -66.0 -58.0 -62.0 -60.0 -63.0 -51.0 -45.0 -52.0 -54.0 -55.0 -61.0 -63.0 -66.0 -63.0 -63.0 -65.0 -68.0 -70.0 -69.0 -69.0 -64.0 -72.0 -68.0 -70.0 -71.0 -73.0 -69.0 -75.0 -74.0 -71.0 -73.0 -78.0 -62.0 -62.0 -73.0 -72.0 -74.0 -80.0 -78.0 -80.0 -79.0 -81.0 -85.0 -86.0 -85.0 -85.0 -87.0 -85.0 -84.0 -83.0 -80.0 -73.0 -75.0 -73.0 -74.0 -75.0 -75.0 -75.0 -80.0 -84.0 -85.0 -88.0 -93.0 -90.0 -101.0 -89.0 -88.0 -89.0 -89.0 -94.0 -85.0 -81.0 -82.0 -81.0 -80.0 -80.0 -82.0 -85.0 -85.0 -79.0 -80.0 -81.0 -79.0 -79.0 -81.0 -82.0 -80.0 -80.0 -82.0 -80.0 -85.0 -88.0 -94.0 -97.0 -94.0 -88.0 -87.0 -84.0 -84.0 -88.0 -85.0 -83.0 -83.0 -84.0 -83.0 -84.0 -83.0 -83.0 -81.0 -81.0 -80.0 -78.0 -73.0 -72.0 -69.0 -72.0 -73.0 -78.0 -75.0 -80.0 -75.0 -79.0 -77.0 -78.0 -78.0 -78.0 -74.0 -76.0 -76.0 -75.0 -74.0 -73.0 -73.0 -71.0 -72.0 -71.0 -70.0 -71.0 -70.0 -71.0 -70.0 -70.0 -68.0 -66.0 -66.0 -71.0 -73.0 -72.0 -71.0 -68.0 -69.0 -69.0 -70.0 -69.0 -66.0 -66.0 -70.0 -78.0 -73.0 -69.0 -67.0 -65.0 -65.0 -65.0 -65.0 -64.0 -64.0 -63.0 -62.0 -61.0 -60.0 -59.0 -58.0 -57.0 -57.0 -59.0 -60.0 -61.0 -62.0 -62.0 -61.0 -60.0 -58.0 -55.0 -54.0 -53.0 -52.0 -52.0 -51.0 -51.0 -50.0 -50.0 -50.0 -50.0 -50.0 -50.0 -50.0 -49.0 -49.0 -56.0 -56.0 -56.0 -53.0 -55.0 -57.0 -57.0 -58.0 -56.0 -54.0 -53.0 -52.0 -47.0 -49.0 -50.0 -51.0 -50.0 -48.0 -46.0 -43.0 -43.0 -42.0 -41.0 -40.0 -38.0 -40.0 -41.0 -42.0 -43.0 -43.0 -42.0 -41.0 -40.0 -40.0 -39.0 -39.0 -38.0 -38.0 -38.0 -37.0 -37.0 -37.0 -36.0 -35.0 -34.0 -33.0 -33.0 -33.0 -35.0 -36.0 -36.0 -35.0 -34.0 -34.0 -33.0 -32.0 -31.0 -31.0 -32.0 -32.0 -32.0 -32.0 -30.0 -29.0 -29.0 -28.0 -28.0 -28.0 -28.0 -27.0 -27.0 -25.0 -22.0 -20.0 -17.0 -14.0 -11.0 -7.0 -1.0 0.0 2.0 2.0 -2.0 2.0 4.0 9.0 17.0 30.0 44.0 48.0 64.0 52.0 54.0 39.0 37.0 43.0 32.0 32.0 43.0 62.0 61.0 54.0 58.0 45.0 54.0 48.0 48.0 53.0 56.0 63.0 82.0 72.0 73.0 83.0 85.0 88.0 96.0 83.0 56.0 61.0 71.0 119.0 101.0 32.0 71.0 32.0 20.0 20.0 20.0 58.0 29.0 20.0 20.0 94.0 93.0 82.0 75.0 76.0 17.0
5.0 5.0 0.0 -1.0 -2.0 -5.0 -12.0 0.0 30.0 48.0 60.0 0.0 -9.0 -7.0 -25.0 -32.0 -24.0 -20.0 -21.0 -23.0 -22.0 -19.0 -20.0 -21.0 -17.0 -11.0 0.0 0.0 0.0 -4.0 -14.0 -22.0 -30.0 -33.0 -36.0 -39.0 -42.0 -44.0 -47.0 -50.0 -53.0 -54.0 -57.0 -57.0 -60.0 -62.0 -61.0 -57.0 -57.0 -53.0 -55.0 -54.0 -54.0 -45.0 -54.0 -55.0 -45.0 -41.0 -60.0 -64.0 -62.0 -69.0 -67.0 -67.0 -66.0 -63.0 -61.0 -51.0 -44.0 -49.0 -55.0 -54.0 -62.0 -62.0 -63.0 -61.0 -64.0 -63.0 -64.0 -63.0 -69.0 -67.0 -70.0 -65.0 -70.0 -70.0 -69.0 -73.0 -73.0 -75.0 -70.0 -71.0 -71.0 -78.0 -64.0 -60.0 -76.0 -75.0 -73.0 -76.0 -82.0 -81.0 -82.0 -82.0 -84.0 -84.0 -81.0 -86.0 -84.0 -85.0 -86.0 -81.0 -79.0 -72.0 -73.0 -75.0 -76.0 -77.0 -74.0 -77.0 -80.0 -86.0 -85.0 -86.0 -86.0 -104.0 -89.0 -84.0 -83.0 -86.0 -86.0 -92.0 -84.0 -80.0 -82.0 -80.0 -81.0 -82.0 -81.0 -88.0 -83.0 -81.0 -80.0 -80.0 -77.0 -83.0 -81.0 -80.0 -80.0 -79.0 -82.0 -80.0 -86.0 -89.0 -92.0 -96.0 -97.0 -89.0 -87.0 -84.0 -85.0 -87.0 -85.0 -82.0 -83.0 -85.0 -84.0 -84.0 -83.0 -83.0 -82.0 -80.0 -77.0 -78.0 -74.0 -72.0 -71.0 -73.0 -75.0 -73.0 -79.0 -78.0 -75.0 -78.0 -78.0 -77.0 -79.0 -75.0 -74.0 -76.0 -78.0 -74.0 -74.0 -73.0 -73.0 -72.0 -71.0 -70.0 -72.0 -71.0 -73.0 -71.0 -72.0 -69.0 -67.0 -65.0 -67.0 -72.0 -72.0 -70.0 -69.0 -68.0 -70.0 -69.0 -68.0 -66.0 -67.0 -69.0 -76.0 -80.0 -74.0 -70.0 -67.0 -66.0 -65.0 -65.0 -65.0 -64.0 -63.0 -62.0 -61.0 -60.0 -59.0 -58.0 -57.0 -56.0 -57.0 -58.0 -60.0 -62.0 -63.0 -63.0 -63.0 -61.0 -58.0 -55.0 -53.0 -52.0 -51.0 -51.0 -50.0 -50.0 -49.0 -49.0 -49.0 -49.0 -49.0 -48.0 -48.0 -46.0 -44.0 -54.0 -56.0 -56.0 -52.0 -54.0 -56.0 -57.0 -56.0 -55.0 -54.0 -53.0 -51.0 -42.0 -46.0 -48.0 -51.0 -49.0 -48.0 -46.0 -44.0 -42.0 -43.0 -41.0 -39.0 -38.0 -39.0 -40.0 -41.0 -42.0 -42.0 -42.0 -41.0 -40.0 -39.0 -39.0 -38.0 -38.0 -37.0 -37.0 -36.0 -36.0 -36.0 -36.0 -35.0 -33.0 -32.0 -32.0 -34.0 -35.0 -36.0 -36.0 -35.0 -35.0 -34.0 -33.0 -31.0 -31.0 -31.0 -31.0 -31.0 -31.0 -30.0 -29.0 -29.0 -28.0 -28.0 -28.0 -29.0 -28.0 -28.0 -27.0 -25.0 -23.0 -21.0 -18.0 -15.0 -12.0 -8.0 -2.0 1.0 -1.0 -1.0 0.0 8.0 20.0 20.0 19.0 44.0 54.0 70.0 70.0 71.0 53.0 36.0 25.0 37.0 30.0 45.0 40.0 72.0 82.0 71.0 70.0 64.0 46.0 50.0 37.0 49.0 57.0 66.0 77.0 73.0 71.0 77.0 91.0 86.0 98.0 107.0 72.0 99.0 102.0 115.0 108.0 96.0 49.0 76.0 43.0 84.0 78.0 28.0 29.0 23.0 24.0 58.0 79.0 109.0 83.0 53.0 14.0
5.0 6.0 6.0 73.0 50.0 0.0 -10.0 -12.0 -6.0 41.0 -3.0 -17.0 -38.0 -10.0 -7.0 -9.0 -13.0 -7.0 -10.0 -13.0 -14.0 -16.0 -17.0 -14.0 -8.0 -3.0 38.0 14.0 37.0 36.0 39.0 -1.0 -11.0 -23.0 -35.0 -39.0 -41.0 -44.0 -46.0 -51.0 -53.0 -51.0 -54.0 -58.0 -60.0 -63.0 -66.0 -59.0 -59.0 -59.0 -56.0 -51.0 -51.0 -46.0 -58.0 -59.0 -58.0 -59.0 -61.0 -64.0 -66.0 -76.0 -71.0 -72.0 -67.0 -67.0 -62.0 -49.0 -45.0 -45.0 -53.0 -51.0 -60.0 -59.0 -65.0 -65.0 -63.0 -64.0 -66.0 -64.0 -69.0 -65.0 -63.0 -64.0 -70.0 -67.0 -69.0 -68.0 -69.0 -71.0 -71.0 -75.0 -69.0 -76.0 -69.0 -63.0 -76.0 -74.0 -73.0 -78.0 -82.0 -83.0 -78.0 -81.0 -86.0 -83.0 -83.0 -82.0 -86.0 -84.0 -83.0 -82.0 -79.0 -73.0 -70.0 -75.0 -75.0 -78.0 -77.0 -79.0 -81.0 -83.0 -86.0 -85.0 -85.0 -85.0 -89.0 -81.0 -76.0 -90.0 -91.0 -89.0 -84.0 -81.0 -82.0 -81.0 -82.0 -81.0 -84.0 -86.0 -83.0 -81.0 -79.0 -79.0 -79.0 -81.0 -81.0 -81.0 -76.0 -80.0 -81.0 -79.0 -85.0 -86.0 -89.0 -94.0 -96.0 -92.0 -87.0 -86.0 -86.0 -86.0 -84.0 -82.0 -82.0 -85.0 -84.0 -83.0 -83.0 -83.0 -83.0 -78.0 -80.0 -77.0 -75.0 -72.0 -72.0 -76.0 -76.0 -76.0 -80.0 -76.0 -78.0 -76.0 -78.0 -79.0 -80.0 -75.0 -76.0 -75.0 -78.0 -74.0 -73.0 -74.0 -73.0 -72.0 -71.0 -71.0 -74.0 -73.0 -70.0 -70.0 -70.0 -70.0 -65.0 -65.0 -69.0 -72.0 -71.0 -69.0 -68.0 -68.0 -68.0 -67.0 -67.0 -68.0 -69.0 -72.0 -77.0 -77.0 -72.0 -69.0 -67.0 -65.0 -64.0 -64.0 -64.0 -64.0 -63.0 -62.0 -60.0 -59.0 -58.0 -57.0 -56.0 -55.0 -56.0 -58.0 -61.0 -63.0 -65.0 -65.0 -64.0 -61.0 -58.0 -55.0 -53.0 -52.0 -50.0 -50.0 -49.0 -48.0 -48.0 -48.0 -47.0 -47.0 -47.0 -47.0 -46.0 -46.0 -48.0 -54.0 -57.0 -55.0 -49.0 -53.0 -55.0 -56.0 -55.0 -55.0 -54.0 -53.0 -52.0 -51.0 -49.0 -50.0 -51.0 -49.0 -47.0 -46.0 -43.0 -41.0 -42.0 -40.0 -40.0 -39.0 -38.0 -39.0 -40.0 -42.0 -42.0 -42.0 -41.0 -40.0 -39.0 -38.0 -38.0 -37.0 -36.0 -36.0 -35.0 -36.0 -36.0 -36.0 -34.0 -33.0 -31.0 -32.0 -34.0 -36.0 -37.0 -36.0 -36.0 -35.0 -34.0 -33.0 -31.0 -31.0 -31.0 -31.0 -31.0 -30.0 -29.0 -28.0 -28.0 -28.0 -28.0 -29.0 -30.0 -29.0 -28.0 -28.0 -26.0 -24.0 -22.0 -19.0 -17.0 -14.0 -11.0 -2.0 -1.0 -2.0 -3.0 -2.0 0.0 7.0 12.0 14.0 37.0 51.0 69.0 40.0 48.0 43.0 51.0 35.0 25.0 31.0 46.0 56.0 58.0 37.0 64.0 68.0 64.0 38.0 37.0 49.0 52.0 59.0 73.0 76.0 65.0 67.0 72.0 78.0 85.0 85.0 100.0 101.0 92.0 63.0 115.0 99.0 124.0 47.0 58.0 66.0 152.0 125.0 67.0 93.0 64.0 26.0 32.0 76.0 70.0 64.0 55.0 18.0
67.0 52.0 44.0 117.0 82.0 61.0 40.0 23.0 0.0 -68.0 -24.0 -1.0 -9.0 -4.0 -5.0 -8.0 -6.0 -5.0 -13.0 -12.0 -14.0 -14.0 -13.0 -9.0 -3.0 43.0 17.0 29.0 56.0 64.0 36.0 24.0 -2.0 -18.0 -29.0 -36.0 -40.0 -44.0 -49.0 -50.0 -52.0 -55.0 -56.0 -60.0 -52.0 -54.0 -69.0 -54.0 -58.0 -56.0 -58.0 -56.0 -55.0 -50.0 -51.0 -62.0 -55.0 -58.0 -63.0 -64.0 -69.0 -76.0 -71.0 -78.0 -70.0 -69.0 -58.0 -47.0 -46.0 -45.0 -47.0 -50.0 -56.0 -64.0 -64.0 -67.0 -65.0 -67.0 -69.0 -67.0 -65.0 -65.0 -65.0 -68.0 -71.0 -70.0 -67.0 -68.0 -72.0 -73.0 -76.0 -74.0 -71.0 -72.0 -71.0 -65.0 -75.0 -74.0 -76.0 -77.0 -86.0 -82.0 -80.0 -81.0 -82.0 -79.0 -78.0 -82.0 -81.0 -80.0 -84.0 -82.0 -78.0 -74.0 -70.0 -75.0 -72.0 -78.0 -78.0 -79.0 -80.0 -84.0 -84.0 -85.0 -83.0 -84.0 -85.0 -79.0 -79.0 -86.0 -91.0 -84.0 -83.0 -83.0 -83.0 -82.0 -83.0 -84.0 -86.0 -86.0 -81.0 -81.0 -79.0 -81.0 -82.0 -80.0 -82.0 -81.0 -82.0 -81.0 -81.0 -79.0 -85.0 -87.0 -86.0 -91.0 -94.0 -96.0 -88.0 -88.0 -88.0 -87.0 -85.0 -82.0 -84.0 -85.0 -84.0 -83.0 -84.0 -82.0 -82.0 -78.0 -80.0 -79.0 -79.0 -72.0 -72.0 -76.0 -77.0 -75.0 -75.0 -76.0 -78.0 -76.0 -78.0 -79.0 -78.0 -73.0 -76.0 -78.0 -75.0 -74.0 -74.0 -74.0 -73.0 -71.0 -71.0 -71.0 -71.0 -71.0 -71.0 -70.0 -70.0 -67.0 -64.0 -72.0 -71.0 -71.0 -71.0 -69.0 -68.0 -68.0 -67.0 -67.0 -68.0 -68.0 -69.0 -71.0 -71.0 -71.0 -69.0 -67.0 -65.0 -63.0 -63.0 -63.0 -63.0 -63.0 -62.0 -61.0 -60.0 -59.0 -58.0 -57.0 -56.0 -55.0 -54.0 -57.0 -61.0 -65.0 -67.0 -67.0 -65.0 -61.0 -58.0 -55.0 -52.0 -51.0 -50.0 -49.0 -48.0 -47.0 -47.0 -46.0 -46.0 -46.0 -46.0 -46.0 -47.0 -48.0 -49.0 -52.0 -54.0 -55.0 -50.0 -53.0 -56.0 -55.0 -53.0 -54.0 -54.0 -54.0 -54.0 -51.0 -50.0 -50.0 -50.0 -49.0 -47.0 -45.0 -44.0 -38.0 -42.0 -40.0 -42.0 -40.0 -39.0 -38.0 -39.0 -41.0 -43.0 -42.0 -41.0 -40.0 -38.0 -37.0 -37.0 -36.0 -35.0 -34.0 -34.0 -35.0 -35.0 -35.0 -34.0 -33.0 -32.0 -33.0 -35.0 -36.0 -38.0 -37.0 -36.0 -35.0 -34.0 -33.0 -31.0 -31.0 -31.0 -31.0 -30.0 -30.0 -28.0 -27.0 -27.0 -28.0 -29.0 -29.0 -30.0 -29.0 -29.0 -28.0 -26.0 -24.0 -23.0 -21.0 -19.0 -15.0 -11.0 -2.0 1.0 -2.0 -3.0 -3.0 -2.0 0.0 5.0 5.0 28.0 62.0 72.0 50.0 33.0 47.0 34.0 34.0 28.0 22.0 49.0 64.0 32.0 45.0 46.0 56.0 52.0 35.0 42.0 51.0 48.0 54.0 58.0 58.0 64.0 63.0 68.0 79.0 81.0 103.0 100.0 104.0 118.0 73.0 123.0 121.0 115.0 65.0 40.0 49.0 115.0 162.0 125.0 101.0 117.0 75.0 51.0 74.0 77.0 56.0 53.0 20.0
135.0 88.0 40.0 65.0 81.0 68.0 70.0 103.0 63.0 47.0 79.0 0.0 -3.0 -5.0 -1.0 -7.0 -6.0 -8.0 -9.0 -11.0 -11.0 -11.0 -10.0 -10.0 7.0 15.0 10.0 9.0 16.0 43.0 45.0 15.0 11.0 -12.0 -20.0 -31.0 -39.0 -42.0 -48.0 -51.0 -52.0 -60.0 -47.0 -58.0 -66.0 -59.0 -65.0 -61.0 -62.0 -61.0 -62.0 -60.0 -60.0 -53.0 -49.0 -61.0 -64.0 -60.0 -60.0 -67.0 -71.0 -79.0 -77.0 -77.0 -59.0 -66.0 -52.0 -47.0 -47.0 -45.0 -47.0 -49.0 -52.0 -61.0 -64.0 -67.0 -67.0 -66.0 -61.0 -65.0 -63.0 -68.0 -66.0 -68.0 -68.0 -73.0 -68.0 -71.0 -72.0 -72.0 -71.0 -72.0 -70.0 -75.0 -71.0 -72.0 -73.0 -74.0 -75.0 -79.0 -83.0 -87.0 -81.0 -77.0 -83.0 -81.0 -80.0 -79.0 -83.0 -79.0 -82.0 -82.0 -77.0 -74.0 -69.0 -74.0 -76.0 -79.0 -80.0 -78.0 -81.0 -82.0 -82.0 -83.0 -85.0 -83.0 -81.0 -79.0 -78.0 -85.0 -85.0 -80.0 -81.0 -82.0 -81.0 -85.0 -84.0 -86.0 -86.0 -84.0 -80.0 -82.0 -82.0 -83.0 -82.0 -81.0 -82.0 -80.0 -82.0 -81.0 -81.0 -83.0 -86.0 -87.0 -89.0 -87.0 -92.0 -95.0 -89.0 -90.0 -91.0 -87.0 -85.0 -83.0 -84.0 -82.0 -83.0 -82.0 -83.0 -83.0 -82.0 -82.0 -79.0 -80.0 -76.0 -73.0 -72.0 -73.0 -77.0 -76.0 -72.0 -77.0 -77.0 -75.0 -79.0 -80.0 -77.0 -77.0 -77.0 -79.0 -76.0 -75.0 -74.0 -73.0 -71.0 -71.0 -71.0 -71.0 -71.0 -71.0 -71.0 -70.0 -67.0 -64.0 -68.0 -71.0 -72.0 -71.0 -71.0 -69.0 -68.0 -68.0 -67.0 -67.0 -67.0 -67.0 -65.0 -65.0 -66.0 -66.0 -65.0 -63.0 -62.0 -61.0 -60.0 -61.0 -62.0 -62.0 -61.0 -60.0 -59.0 -58.0 -57.0 -56.0 -55.0 -54.0 -53.0 -58.0 -62.0 -67.0 -69.0 -69.0 -65.0 -61.0 -57.0 -54.0 -52.0 -50.0 -49.0 -48.0 -47.0 -46.0 -46.0 -45.0 -45.0 -44.0 -45.0 -46.0 -48.0 -49.0 -51.0 -52.0 -52.0 -51.0 -50.0 -53.0 -56.0 -55.0 -52.0 -53.0 -53.0 -53.0 -54.0 -51.0 -50.0 -50.0 -50.0 -48.0 -47.0 -45.0 -42.0 -40.0 -37.0 -40.0 -42.0 -40.0 -39.0 -38.0 -39.0 -41.0 -43.0 -43.0 -41.0 -40.0 -38.0 -37.0 -36.0 -35.0 -35.0 -34.0 -34.0 -34.0 -34.0 -34.0 -34.0 -33.0 -33.0 -34.0 -35.0 -36.0 -38.0 -37.0 -36.0 -35.0 -34.0 -33.0 -32.0 -31.0 -31.0 -30.0 -30.0 -29.0 -28.0 -27.0 -27.0 -28.0 -29.0 -29.0 -29.0 -29.0 -28.0 -27.0 -26.0 -25.0 -23.0 -22.0 -20.0 -16.0 -10.0 -2.0 1.0 -2.0 -3.0 -3.0 -3.0 0.0 3.0 2.0 21.0 47.0 56.0 41.0 26.0 46.0 34.0 29.0 34.0 22.0 38.0 21.0 41.0 51.0 47.0 45.0 41.0 36.0 39.0 43.0 45.0 48.0 68.0 56.0 67.0 72.0 58.0 67.0 80.0 99.0 99.0 100.0 98.0 113.0 109.0 119.0 111.0 85.0 56.0 59.0 82.0 102.0 63.0 77.0 95.0 81.0 80.0 79.0 76.0 80.0 39.0 7.0
155.0 73.0 160.0 169.0 100.0 107.0 96.0 72.0 88.0 56.0 66.0 58.0 31.0 30.0 28.0 9.0 0.0 -4.0 -7.0 -9.0 -9.0 -10.0 -8.0 -5.0 20.0 15.0 35.0 44.0 35.0 26.0 12.0 58.0 11.0 0.0 -11.0 -19.0 -29.0 -37.0 -44.0 -51.0 -54.0 -58.0 -64.0 -56.0 -61.0 -63.0 -66.0 -64.0 -64.0 -64.0 -62.0 -62.0 -64.0 -59.0 -57.0 -58.0 -64.0 -64.0 -57.0 -64.0 -70.0 -80.0 -82.0 -77.0 -82.0 -58.0 -65.0 -59.0 -51.0 -49.0 -49.0 -54.0 -54.0 -54.0 -63.0 -65.0 -64.0 -63.0 -55.0 -60.0 -58.0 -64.0 -63.0 -67.0 -69.0 -66.0 -65.0 -67.0 -72.0 -69.0 -70.0 -71.0 -69.0 -71.0 -77.0 -72.0 -72.0 -75.0 -75.0 -78.0 -73.0 -87.0 -84.0 -84.0 -78.0 -79.0 -84.0 -83.0 -77.0 -82.0 -80.0 -86.0 -79.0 -74.0 -72.0 -75.0 -78.0 -81.0 -82.0 -78.0 -80.0 -80.0 -83.0 -86.0 -83.0 -81.0 -78.0 -77.0 -80.0 -84.0 -83.0 -79.0 -80.0 -81.0 -82.0 -83.0 -85.0 -87.0 -84.0 -80.0 -79.0 -80.0 -80.0 -80.0 -79.0 -80.0 -81.0 -80.0 -81.0 -82.0 -82.0 -82.0 -81.0 -86.0 -88.0 -88.0 -90.0 -94.0 -92.0 -91.0 -89.0 -86.0 -84.0 -85.0 -83.0 -83.0 -83.0 -82.0 -83.0 -84.0 -79.0 -82.0 -79.0 -80.0 -74.0 -70.0 -71.0 -74.0 -78.0 -78.0 -75.0 -76.0 -78.0 -75.0 -78.0 -79.0 -77.0 -76.0 -77.0 -78.0 -77.0 -75.0 -73.0 -72.0 -72.0 -71.0 -71.0 -72.0 -71.0 -70.0 -70.0 -69.0 -65.0 -64.0 -70.0 -72.0 -72.0 -71.0 -70.0 -69.0 -68.0 -68.0 -67.0 -67.0 -66.0 -66.0 -65.0 -64.0 -64.0 -62.0 -61.0 -59.0 -58.0 -57.0 -57.0 -59.0 -61.0 -62.0 -60.0 -59.0 -58.0 -57.0 -56.0 -55.0 -54.0 -53.0 -54.0 -57.0 -62.0 -67.0 -72.0 -69.0 -64.0 -60.0 -56.0 -53.0 -51.0 -49.0 -48.0 -47.0 -46.0 -45.0 -44.0 -44.0 -43.0 -43.0 -43.0 -45.0 -47.0 -50.0 -51.0 -52.0 -52.0 -52.0 -48.0 -51.0 -57.0 -56.0 -55.0 -54.0 -52.0 -51.0 -52.0 -51.0 -51.0 -51.0 -50.0 -48.0 -46.0 -45.0 -45.0 -44.0 -39.0 -41.0 -42.0 -41.0 -40.0 -39.0 -40.0 -42.0 -43.0 -43.0 -41.0 -39.0 -38.0 -37.0 -36.0 -35.0 -34.0 -33.0 -33.0 -33.0 -34.0 -34.0 -34.0 -34.0 -34.0 -35.0 -35.0 -36.0 -37.0 -37.0 -36.0 -35.0 -34.0 -33.0 -32.0 -31.0 -31.0 -31.0 -30.0 -29.0 -28.0 -27.0 -27.0 -28.0 -28.0 -29.0 -29.0 -28.0 -27.0 -26.0 -25.0 -24.0 -23.0 -23.0 -22.0 -16.0 -10.0 -3.0 0.0 -2.0 -3.0 -3.0 -3.0 0.0 -1.0 3.0 15.0 32.0 35.0 31.0 33.0 36.0 38.0 40.0 40.0 21.0 19.0 24.0 35.0 48.0 40.0 44.0 28.0 32.0 34.0 40.0 44.0 53.0 53.0 56.0 62.0 65.0 78.0 80.0 80.0 98.0 96.0 101.0 76.0 103.0 114.0 87.0 80.0 57.0 75.0 70.0 42.0 59.0 46.0 59.0 63.0 72.0 74.0 82.0 72.0 32.0 25.0 22.0
121.0 123.0 184.0 232.0 197.0 164.0 92.0 90.0 58.0 32.0 27.0 56.0 71.0 61.0 24.0 22.0 25.0 -4.0 -6.0 -8.0 -7.0 -3.0 -2.0 7.0 38.0 76.0 90.0 72.0 47.0 23.0 33.0 7.0 14.0 7.0 14.0 2.0 -11.0 -19.0 -36.0 -47.0 -55.0 -56.0 -63.0 -66.0 -61.0 -64.0 -65.0 -69.0 -68.0 -66.0 -66.0 -64.0 -63.0 -63.0 -58.0 -57.0 -55.0 -63.0 -64.0 -63.0 -68.0 -78.0 -88.0 -76.0 -81.0 -69.0 -62.0 -61.0 -55.0 -51.0 -55.0 -56.0 -52.0 -55.0 -60.0 -63.0 -61.0 -65.0 -60.0 -58.0 -62.0 -64.0 -58.0 -66.0 -72.0 -65.0 -71.0 -71.0 -71.0 -70.0 -71.0 -74.0 -65.0 -72.0 -76.0 -73.0 -70.0 -78.0 -73.0 -85.0 -77.0 -87.0 -87.0 -81.0 -80.0 -82.0 -76.0 -77.0 -78.0 -80.0 -83.0 -84.0 -80.0 -74.0 -73.0 -78.0 -79.0 -82.0 -81.0 -78.0 -77.0 -81.0 -81.0 -84.0 -83.0 -79.0 -79.0 -79.0 -82.0 -83.0 -78.0 -77.0 -78.0 -78.0 -82.0 -79.0 -82.0 -86.0 -83.0 -78.0 -77.0 -80.0 -83.0 -81.0 -79.0 -79.0 -79.0 -81.0 -81.0 -81.0 -81.0 -82.0 -78.0 -85.0 -88.0 -86.0 -90.0 -91.0 -95.0 -89.0 -87.0 -86.0 -83.0 -83.0 -83.0 -82.0 -82.0 -81.0 -84.0 -84.0 -83.0 -82.0 -79.0 -80.0 -76.0 -71.0 -73.0 -74.0 -77.0 -78.0 -72.0 -76.0 -77.0 -79.0 -77.0 -78.0 -75.0 -77.0 -76.0 -77.0 -75.0 -73.0 -72.0 -73.0 -71.0 -71.0 -71.0 -70.0 -71.0 -70.0 -68.0 -66.0 -67.0 -69.0 -71.0 -71.0 -72.0 -71.0 -70.0 -69.0 -69.0 -68.0 -68.0 -67.0 -67.0 -66.0 -65.0 -63.0 -62.0 -60.0 -58.0 -56.0 -53.0 -53.0 -55.0 -58.0 -60.0 -60.0 -60.0 -59.0 -58.0 -57.0 -55.0 -55.0 -53.0 -53.0 -54.0 -56.0 -61.0 -65.0 -69.0 -68.0 -63.0 -59.0 -55.0 -52.0 -50.0 -48.0 -47.0 -46.0 -45.0 -44.0 -43.0 -42.0 -42.0 -41.0 -41.0 -43.0 -46.0 -49.0 -51.0 -51.0 -51.0 -52.0 -46.0 -50.0 -56.0 -55.0 -54.0 -52.0 -48.0 -50.0 -50.0 -51.0 -52.0 -52.0 -50.0 -46.0 -44.0 -45.0 -44.0 -43.0 -42.0 -41.0 -42.0 -42.0 -41.0 -41.0 -41.0 -42.0 -43.0 -42.0 -41.0 -39.0 -38.0 -36.0 -35.0 -34.0 -33.0 -32.0 -32.0 -33.0 -33.0 -34.0 -34.0 -34.0 -35.0 -35.0 -36.0 -36.0 -37.0 -37.0 -36.0 -35.0 -34.0 -33.0 -32.0 -31.0 -31.0 -31.0 -31.0 -29.0 -28.0 -27.0 -27.0 -28.0 -28.0 -28.0 -28.0 -27.0 -26.0 -25.0 -24.0 -24.0 -23.0 -22.0 -21.0 -17.0 -11.0 -4.0 5.0 -2.0 -3.0 -3.0 -3.0 0.0 1.0 2.0 6.0 42.0 36.0 13.0 26.0 24.0 23.0 38.0 25.0 16.0 26.0 27.0 25.0 32.0 37.0 21.0 34.0 38.0 39.0 51.0 44.0 52.0 55.0 58.0 65.0 66.0 70.0 78.0 89.0 115.0 109.0 109.0 99.0 106.0 116.0 94.0 66.0 60.0 52.0 52.0 50.0 72.0 66.0 60.0 57.0 59.0 60.0 69.0 73.0 51.0 22.0 5.0
127.0 121.0 269.0 238.0 182.0 134.0 84.0 58.0 42.0 42.0 43.0 46.0 49.0 47.0 60.0 78.0 87.0 14.0 -2.0 0.0 -4.0 23.0 34.0 52.0 74.0 84.0 112.0 81.0 49.0 34.0 77.0 60.0 55.0 48.0 69.0 46.0 21.0 -7.0 -22.0 -39.0 -48.0 -56.0 -59.0 -63.0 -70.0 -69.0 -70.0 -68.0 -71.0 -70.0 -67.0 -67.0 -65.0 -64.0 -59.0 -55.0 -61.0 -59.0 -64.0 -63.0 -69.0 -78.0 -87.0 -84.0 -73.0 -69.0 -63.0 -64.0 -57.0 -53.0 -55.0 -57.0 -56.0 -50.0 -58.0 -62.0 -66.0 -64.0 -67.0 -61.0 -57.0 -68.0 -68.0 -68.0 -78.0 -73.0 -66.0 -73.0 -71.0 -67.0 -70.0 -72.0 -75.0 -73.0 -78.0 -76.0 -73.0 -78.0 -77.0 -82.0 -77.0 -82.0 -88.0 -76.0 -76.0 -79.0 -75.0 -77.0 -77.0 -84.0 -83.0 -78.0 -83.0 -75.0 -76.0 -80.0 -80.0 -81.0 -80.0 -78.0 -80.0 -81.0 -82.0 -83.0 -82.0 -77.0 -78.0 -79.0 -81.0 -81.0 -76.0 -76.0 -77.0 -76.0 -78.0 -79.0 -84.0 -86.0 -85.0 -78.0 -77.0 -80.0 -83.0 -83.0 -78.0 -83.0 -80.0 -80.0 -83.0 -81.0 -81.0 -82.0 -81.0 -81.0 -86.0 -88.0 -87.0 -87.0 -95.0 -90.0 -85.0 -82.0 -83.0 -84.0 -82.0 -82.0 -84.0 -82.0 -84.0 -82.0 -82.0 -81.0 -81.0 -79.0 -74.0 -72.0 -74.0 -73.0 -74.0 -74.0 -78.0 -77.0 -76.0 -79.0 -74.0 -78.0 -75.0 -75.0 -77.0 -76.0 -75.0 -73.0 -73.0 -73.0 -72.0 -72.0 -72.0 -71.0 -70.0 -70.0 -67.0 -66.0 -68.0 -68.0 -69.0 -72.0 -71.0 -71.0 -70.0 -70.0 -69.0 -69.0 -68.0 -67.0 -67.0 -66.0 -65.0 -63.0 -61.0 -59.0 -57.0 -54.0 -51.0 -51.0 -54.0 -57.0 -59.0 -59.0 -59.0 -58.0 -57.0 -56.0 -55.0 -54.0 -53.0 -53.0 -53.0 -56.0 -59.0 -63.0 -66.0 -66.0 -62.0 -58.0 -54.0 -51.0 -49.0 -48.0 -46.0 -45.0 -44.0 -43.0 -42.0 -41.0 -40.0 -39.0 -39.0 -42.0 -45.0 -48.0 -51.0 -50.0 -49.0 -52.0 -50.0 -51.0 -55.0 -54.0 -53.0 -52.0 -51.0 -50.0 -51.0 -51.0 -52.0 -51.0 -49.0 -45.0 -43.0 -44.0 -43.0 -45.0 -42.0 -42.0 -42.0 -42.0 -42.0 -42.0 -42.0 -43.0 -42.0 -41.0 -40.0 -39.0 -37.0 -36.0 -35.0 -34.0 -33.0 -32.0 -32.0 -32.0 -33.0 -33.0 -34.0 -35.0 -35.0 -36.0 -36.0 -36.0 -37.0 -37.0 -36.0 -35.0 -33.0 -32.0 -31.0 -31.0 -30.0 -30.0 -30.0 -29.0 -28.0 -27.0 -27.0 -27.0 -27.0 -27.0 -27.0 -26.0 -26.0 -25.0 -24.0 -23.0 -22.0 -21.0 -20.0 -17.0 -13.0 -7.0 0.0 -2.0 -2.0 -2.0 -1.0 0.0 3.0 3.0 6.0 15.0 20.0 9.0 20.0 12.0 23.0 30.0 21.0 12.0 31.0 30.0 39.0 26.0 27.0 34.0 32.0 33.0 35.0 44.0 59.0 45.0 53.0 56.0 71.0 72.0 67.0 81.0 86.0 92.0 115.0 115.0 98.0 101.0 83.0 69.0 62.0 87.0 78.0 10.0 12.0 68.0 52.0 59.0 62.0 82.0 83.0 41.0 40.0 41.0 18.0 9.0
148.0 138.0 205.0 196.0 186.0 138.0 117.0 93.0 80.0 97.0 66.0 57.0 63.0 56.0 92.0 69.0 46.0 44.0 23.0 15.0 38.0 102.0 96.0 87.0 108.0 97.0 56.0 58.0 67.0 88.0 72.0 84.0 125.0 109.0 151.0 171.0 58.0 23.0 -12.0 -27.0 -42.0 -51.0 -58.0 -63.0 -65.0 -73.0 -74.0 -74.0 -71.0 -72.0 -72.0 -69.0 -68.0 -64.0 -56.0 -51.0 -63.0 -67.0 -64.0 -64.0 -68.0 -75.0 -83.0 -89.0 -74.0 -79.0 -66.0 -68.0 -61.0 -57.0 -59.0 -60.0 -56.0 -51.0 -56.0 -61.0 -62.0 -61.0 -62.0 -59.0 -56.0 -65.0 -66.0 -65.0 -69.0 -68.0 -70.0 -65.0 -68.0 -65.0 -69.0 -73.0 -73.0 -80.0 -72.0 -73.0 -74.0 -75.0 -78.0 -80.0 -74.0 -69.0 -89.0 -84.0 -81.0 -79.0 -79.0 -81.0 -75.0 -83.0 -83.0 -79.0 -81.0 -77.0 -77.0 -81.0 -80.0 -79.0 -79.0 -78.0 -81.0 -77.0 -83.0 -80.0 -77.0 -75.0 -77.0 -79.0 -82.0 -83.0 -75.0 -75.0 -75.0 -76.0 -77.0 -81.0 -77.0 -86.0 -84.0 -80.0 -77.0 -80.0 -81.0 -88.0 -81.0 -86.0 -81.0 -79.0 -82.0 -78.0 -81.0 -81.0 -84.0 -81.0 -86.0 -89.0 -84.0 -88.0 -89.0 -93.0 -86.0 -87.0 -85.0 -84.0 -81.0 -83.0 -83.0 -83.0 -83.0 -83.0 -83.0 -82.0 -78.0 -76.0 -71.0 -73.0 -75.0 -74.0 -76.0 -75.0 -75.0 -74.0 -76.0 -78.0 -76.0 -77.0 -77.0 -76.0 -77.0 -74.0 -75.0 -74.0 -74.0 -73.0 -72.0 -71.0 -71.0 -68.0 -70.0 -69.0 -67.0 -67.0 -67.0 -70.0 -71.0 -70.0 -71.0 -71.0 -70.0 -70.0 -70.0 -69.0 -68.0 -68.0 -67.0 -66.0 -65.0 -63.0 -61.0 -59.0 -57.0 -54.0 -52.0 -52.0 -54.0 -56.0 -58.0 -58.0 -58.0 -57.0 -56.0 -55.0 -54.0 -53.0 -52.0 -52.0 -53.0 -55.0 -58.0 -61.0 -64.0 -64.0 -60.0 -56.0 -53.0 -50.0 -48.0 -47.0 -45.0 -44.0 -43.0 -42.0 -41.0 -40.0 -39.0 -37.0 -37.0 -40.0 -44.0 -47.0 -50.0 -49.0 -46.0 -49.0 -49.0 -51.0 -52.0 -52.0 -52.0 -53.0 -52.0 -51.0 -51.0 -51.0 -51.0 -50.0 -48.0 -46.0 -47.0 -45.0 -44.0 -43.0 -42.0 -43.0 -43.0 -43.0 -43.0 -42.0 -43.0 -43.0 -42.0 -41.0 -40.0 -39.0 -37.0 -36.0 -35.0 -34.0 -33.0 -32.0 -32.0 -32.0 -33.0 -34.0 -35.0 -35.0 -36.0 -36.0 -36.0 -36.0 -36.0 -37.0 -36.0 -35.0 -33.0 -32.0 -31.0 -30.0 -30.0 -29.0 -29.0 -28.0 -27.0 -27.0 -26.0 -26.0 -26.0 -26.0 -26.0 -26.0 -25.0 -24.0 -23.0 -22.0 -21.0 -21.0 -19.0 -17.0 -14.0 -10.0 -3.0 0.0 -1.0 -3.0 -4.0 -1.0 0.0 2.0 3.0 6.0 8.0 8.0 8.0 9.0 12.0 18.0 8.0 11.0 15.0 20.0 20.0 18.0 26.0 25.0 28.0 37.0 38.0 43.0 75.0 60.0 52.0 57.0 62.0 68.0 62.0 90.0 88.0 97.0 92.0 101.0 105.0 91.0 70.0 53.0 72.0 72.0 81.0 49.0 23.0 11.0 7.0 22.0 31.0 9.0 32.0 12.0 8.0 0.0 7.0 7.0
177.0 154.0 138.0 145.0 141.0 152.0 113.0 103.0 109.0 94.0 98.0 101.0 110.0 118.0 134.0 122.0 66.0 76.0 36.0 29.0 98.0 130.0 90.0 131.0 108.0 76.0 53.0 66.0 95.0 120.0 115.0 146.0 270.0 179.0 172.0 155.0 144.0 77.0 0.0 -20.0 -30.0 -40.0 -55.0 -66.0 -69.0 -68.0 -70.0 -76.0 -75.0 -73.0 -69.0 -71.0 -71.0 -63.0 -59.0 -52.0 -65.0 -70.0 -67.0 -63.0 -65.0 -71.0 -79.0 -83.0 -87.0 -82.0 -72.0 -70.0 -73.0 -60.0 -61.0 -65.0 -60.0 -57.0 -55.0 -59.0 -61.0 -58.0 -63.0 -63.0 -62.0 -66.0 -70.0 -73.0 -69.0 -69.0 -70.0 -69.0 -70.0 -66.0 -67.0 -71.0 -69.0 -78.0 -73.0 -71.0 -74.0 -80.0 -78.0 -79.0 -82.0 -73.0 -78.0 -82.0 -83.0 -78.0 -79.0 -80.0 -78.0 -84.0 -84.0 -83.0 -78.0 -79.0 -82.0 -81.0 -79.0 -75.0 -81.0 -79.0 -79.0 -79.0 -82.0 -80.0 -73.0 -75.0 -77.0 -79.0 -81.0 -78.0 -75.0 -72.0 -74.0 -77.0 -77.0 -77.0 -77.0 -84.0 -84.0 -81.0 -80.0 -78.0 -82.0 -90.0 -81.0 -84.0 -82.0 -80.0 -83.0 -79.0 -80.0 -83.0 -83.0 -76.0 -83.0 -88.0 -85.0 -89.0 -89.0 -92.0 -89.0 -91.0 -87.0 -85.0 -84.0 -83.0 -83.0 -83.0 -84.0 -84.0 -83.0 -83.0 -79.0 -72.0 -73.0 -74.0 -76.0 -77.0 -75.0 -77.0 -72.0 -77.0 -75.0 -78.0 -74.0 -76.0 -77.0 -77.0 -79.0 -75.0 -74.0 -72.0 -73.0 -73.0 -71.0 -72.0 -70.0 -68.0 -70.0 -67.0 -65.0 -67.0 -68.0 -71.0 -72.0 -71.0 -70.0 -70.0 -70.0 -70.0 -70.0 -69.0 -69.0 -68.0 -67.0 -66.0 -65.0 -63.0 -61.0 -59.0 -57.0 -55.0 -53.0 -53.0 -55.0 -56.0 -57.0 -57.0 -57.0 -56.0 -55.0 -54.0 -53.0 -52.0 -52.0 -51.0 -52.0 -54.0 -56.0 -59.0 -61.0 -61.0 -58.0 -55.0 -51.0 -49.0 -47.0 -46.0 -44.0 -43.0 -42.0 -41.0 -40.0 -39.0 -38.0 -36.0 -36.0 -39.0 -43.0 -46.0 -50.0 -47.0 -46.0 -46.0 -45.0 -50.0 -55.0 -53.0 -53.0 -52.0 -52.0 -52.0 -52.0 -52.0 -51.0 -49.0 -47.0 -47.0 -47.0 -47.0 -44.0 -43.0 -43.0 -43.0 -43.0 -43.0 -43.0 -43.0 -43.0 -43.0 -42.0 -41.0 -40.0 -39.0 -38.0 -36.0 -36.0 -35.0 -34.0 -33.0 -33.0 -32.0 -33.0 -34.0 -35.0 -36.0 -36.0 -36.0 -36.0 -35.0 -35.0 -35.0 -36.0 -34.0 -33.0 -32.0 -31.0 -30.0 -29.0 -28.0 -28.0 -27.0 -26.0 -26.0 -26.0 -26.0 -25.0 -25.0 -25.0 -25.0 -25.0 -24.0 -23.0 -22.0 -21.0 -20.0 -19.0 -18.0 -16.0 -14.0 -7.0 1.0 0.0 -2.0 -3.0 -4.0 -1.0 0.0 3.0 2.0 2.0 7.0 8.0 16.0 5.0 6.0 13.0 15.0 18.0 17.0 18.0 20.0 25.0 31.0 29.0 32.0 38.0 41.0 56.0 63.0 63.0 58.0 66.0 76.0 82.0 86.0 115.0 87.0 103.0 102.0 103.0 94.0 78.0 50.0 64.0 85.0 64.0 35.0 22.0 2.0 1.0 0.0 20.0 67.0 -2.0 8.0 -5.0 2.0 0.0 1.0
160.0 158.0 160.0 152.0 125.0 121.0 132.0 156.0 174.0 224.0 168.0 166.0 269.0 186.0 151.0 126.0 138.0 73.0 50.0 55.0 119.0 106.0 81.0 84.0 70.0 82.0 77.0 130.0 139.0 171.0 174.0 237.0 344.0 329.0 280.0 275.0 308.0 162.0 97.0 0.0 -14.0 -27.0 -34.0 -46.0 -71.0 -68.0 -70.0 -67.0 -71.0 -75.0 -75.0 -72.0 -73.0 -68.0 -66.0 -55.0 -54.0 -68.0 -71.0 -68.0 -66.0 -67.0 -78.0 -84.0 -82.0 -89.0 -69.0 -62.0 -71.0 -74.0 -63.0 -64.0 -62.0 -64.0 -60.0 -59.0 -59.0 -59.0 -65.0 -62.0 -57.0 -57.0 -64.0 -69.0 -69.0 -66.0 -66.0 -68.0 -69.0 -67.0 -69.0 -74.0 -73.0 -74.0 -76.0 -75.0 -72.0 -82.0 -76.0 -76.0 -80.0 -79.0 -83.0 -77.0 -79.0 -82.0 -82.0 -79.0 -78.0 -85.0 -85.0 -83.0 -82.0 -81.0 -82.0 -75.0 -79.0 -75.0 -83.0 -78.0 -81.0 -80.0 -76.0 -79.0 -73.0 -75.0 -80.0 -79.0 -82.0 -79.0 -77.0 -73.0 -74.0 -75.0 -75.0 -77.0 -77.0 -78.0 -84.0 -83.0 -80.0 -82.0 -80.0 -84.0 -84.0 -81.0 -83.0 -80.0 -82.0 -79.0 -79.0 -85.0 -84.0 -81.0 -83.0 -88.0 -87.0 -88.0 -90.0 -89.0 -91.0 -90.0 -87.0 -84.0 -83.0 -85.0 -84.0 -84.0 -82.0 -82.0 -82.0 -82.0 -81.0 -72.0 -74.0 -76.0 -75.0 -75.0 -74.0 -75.0 -77.0 -76.0 -77.0 -77.0 -76.0 -77.0 -75.0 -76.0 -79.0 -76.0 -72.0 -73.0 -72.0 -71.0 -72.0 -70.0 -69.0 -70.0 -68.0 -68.0 -66.0 -66.0 -71.0 -71.0 -71.0 -70.0 -70.0 -70.0 -70.0 -69.0 -69.0 -69.0 -68.0 -68.0 -67.0 -67.0 -65.0 -63.0 -62.0 -60.0 -58.0 -56.0 -54.0 -54.0 -55.0 -56.0 -57.0 -57.0 -56.0 -55.0 -54.0 -53.0 -53.0 -52.0 -51.0 -50.0 -51.0 -53.0 -55.0 -57.0 -59.0 -59.0 -56.0 -53.0 -50.0 -48.0 -46.0 -45.0 -44.0 -42.0 -42.0 -40.0 -39.0 -38.0 -37.0 -35.0 -35.0 -38.0 -42.0 -45.0 -47.0 -43.0 -46.0 -54.0 -49.0 -50.0 -55.0 -54.0 -53.0 -52.0 -52.0 -52.0 -52.0 -53.0 -51.0 -49.0 -46.0 -47.0 -47.0 -46.0 -44.0 -43.0 -43.0 -43.0 -43.0 -43.0 -43.0 -43.0 -43.0 -43.0 -42.0 -41.0 -40.0 -39.0 -38.0 -37.0 -37.0 -36.0 -35.0 -35.0 -34.0 -33.0 -33.0 -35.0 -36.0 -36.0 -36.0 -36.0 -35.0 -35.0 -34.0 -34.0 -35.0 -34.0 -32.0 -31.0 -30.0 -29.0 -28.0 -27.0 -27.0 -26.0 -25.0 -25.0 -24.0 -24.0 -25.0 -25.0 -25.0 -25.0 -25.0 -24.0 -23.0 -22.0 -21.0 -20.0 -19.0 -18.0 -17.0 -15.0 -9.0 7.0 0.0 0.0 -1.0 -3.0 -3.0 0.0 -1.0 0.0 2.0 2.0 3.0 6.0 6.0 13.0 13.0 17.0 19.0 18.0 20.0 33.0 27.0 40.0 30.0 38.0 38.0 52.0 42.0 52.0 61.0 66.0 64.0 82.0 112.0 87.0 128.0 95.0 73.0 82.0 90.0 67.0 53.0 70.0 58.0 51.0 31.0 16.0 31.0 19.0 2.0 7.0 -2.0 -4.0 -4.0 -12.0 2.0 4.0 -2.0 -4.0
212.0 184.0 165.0 161.0 157.0 163.0 168.0 205.0 220.0 196.0 215.0 248.0 310.0 405.0 274.0 162.0 114.0 104.0 57.0 120.0 174.0 94.0 138.0 135.0 97.0 150.0 146.0 113.0 177.0 209.0 266.0 303.0 345.0 308.0 376.0 304.0 250.0 184.0 130.0 95.0 96.0 0.0 147.0 0.0 -34.0 -62.0 -70.0 -69.0 -71.0 -57.0 -74.0 -72.0 -73.0 -66.0 -69.0 -65.0 -53.0 -68.0 -70.0 -70.0 -63.0 -63.0 -74.0 -79.0 -82.0 -80.0 -86.0 -66.0 -65.0 -72.0 -71.0 -60.0 -68.0 -64.0 -73.0 -62.0 -60.0 -62.0 -60.0 -63.0 -60.0 -58.0 -64.0 -67.0 -69.0 -74.0 -68.0 -66.0 -69.0 -72.0 -70.0 -73.0 -71.0 -75.0 -73.0 -77.0 -76.0 -84.0 -76.0 -81.0 -78.0 -80.0 -82.0 -74.0 -77.0 -85.0 -79.0 -80.0 -76.0 -83.0 -86.0 -82.0 -84.0 -79.0 -82.0 -77.0 -79.0 -77.0 -81.0 -79.0 -81.0 -79.0 -77.0 -76.0 -74.0 -76.0 -80.0 -79.0 -82.0 -79.0 -74.0 -73.0 -75.0 -72.0 -75.0 -76.0 -77.0 -77.0 -82.0 -80.0 -81.0 -79.0 -78.0 -82.0 -85.0 -80.0 -81.0 -83.0 -78.0 -79.0 -81.0 -82.0 -83.0 -81.0 -80.0 -86.0 -84.0 -87.0 -88.0 -88.0 -89.0 -90.0 -88.0 -86.0 -84.0 -83.0 -84.0 -85.0 -82.0 -83.0 -83.0 -82.0 -80.0 -73.0 -75.0 -77.0 -77.0 -76.0 -75.0 -75.0 -73.0 -77.0 -77.0 -75.0 -78.0 -76.0 -76.0 -76.0 -76.0 -75.0 -73.0 -73.0 -73.0 -73.0 -70.0 -71.0 -71.0 -68.0 -69.0 -67.0 -69.0 -68.0 -70.0 -71.0 -69.0 -69.0 -70.0 -69.0 -69.0 -68.0 -68.0 -68.0 -68.0 -67.0 -67.0 -67.0 -65.0 -63.0 -62.0 -60.0 -58.0 -57.0 -56.0 -55.0 -56.0 -56.0 -56.0 -56.0 -55.0 -54.0 -54.0 -53.0 -52.0 -51.0 -50.0 -49.0 -50.0 -51.0 -53.0 -55.0 -56.0 -56.0 -54.0 -52.0 -49.0 -46.0 -45.0 -44.0 -43.0 -42.0 -41.0 -40.0 -39.0 -38.0 -37.0 -36.0 -36.0 -38.0 -42.0 -46.0 -48.0 -42.0 -47.0 -53.0 -51.0 -50.0 -54.0 -54.0 -53.0 -52.0 -52.0 -52.0 -52.0 -52.0 -51.0 -49.0 -47.0 -47.0 -47.0 -46.0 -45.0 -44.0 -43.0 -43.0 -43.0 -43.0 -43.0 -43.0 -43.0 -43.0 -42.0 -41.0 -40.0 -39.0 -38.0 -38.0 -37.0 -37.0 -37.0 -36.0 -35.0 -34.0 -34.0 -35.0 -37.0 -37.0 -37.0 -36.0 -35.0 -34.0 -33.0 -32.0 -32.0 -32.0 -31.0 -30.0 -29.0 -28.0 -27.0 -26.0 -26.0 -25.0 -24.0 -24.0 -23.0 -23.0 -24.0 -24.0 -24.0 -24.0 -25.0 -24.0 -23.0 -22.0 -21.0 -20.0 -19.0 -18.0 -17.0 -14.0 -9.0 -1.0 0.0 0.0 -2.0 -2.0 -3.0 -1.0 -1.0 0.0 0.0 0.0 9.0 8.0 13.0 13.0 12.0 17.0 19.0 22.0 23.0 28.0 28.0 53.0 34.0 45.0 51.0 63.0 45.0 75.0 54.0 72.0 68.0 73.0 97.0 117.0 131.0 120.0 93.0 65.0 80.0 53.0 50.0 56.0 59.0 34.0 36.0 28.0 28.0 35.0 15.0 4.0 -2.0 -5.0 -5.0 -5.0 -17.0 1.0 -3.0 -5.0
230.0 204.0 193.0 182.0 202.0 207.0 224.0 313.0 245.0 255.0 253.0 303.0 305.0 278.0 187.0 167.0 118.0 95.0 84.0 179.0 187.0 135.0 143.0 156.0 124.0 173.0 179.0 172.0 167.0 228.0 276.0 327.0 352.0 291.0 322.0 315.0 330.0 216.0 190.0 205.0 231.0 223.0 208.0 194.0 134.0 -11.0 -68.0 -71.0 -69.0 -61.0 -61.0 -72.0 -70.0 -65.0 -69.0 -69.0 -63.0 -55.0 -71.0 -66.0 -64.0 -65.0 -75.0 -79.0 -82.0 -83.0 -82.0 -80.0 -66.0 -66.0 -75.0 -73.0 -72.0 -61.0 -76.0 -59.0 -62.0 -63.0 -64.0 -64.0 -65.0 -57.0 -67.0 -71.0 -67.0 -72.0 -70.0 -69.0 -71.0 -71.0 -70.0 -73.0 -75.0 -69.0 -70.0 -83.0 -79.0 -75.0 -80.0 -79.0 -99.0 -77.0 -80.0 -78.0 -81.0 -85.0 -82.0 -78.0 -78.0 -82.0 -85.0 -81.0 -87.0 -80.0 -82.0 -76.0 -78.0 -79.0 -81.0 -77.0 -79.0 -79.0 -75.0 -72.0 -78.0 -77.0 -76.0 -78.0 -82.0 -81.0 -76.0 -74.0 -75.0 -72.0 -74.0 -76.0 -76.0 -77.0 -81.0 -79.0 -78.0 -79.0 -78.0 -78.0 -86.0 -82.0 -82.0 -86.0 -78.0 -79.0 -81.0 -84.0 -81.0 -80.0 -78.0 -85.0 -85.0 -88.0 -89.0 -85.0 -87.0 -88.0 -88.0 -87.0 -85.0 -83.0 -84.0 -84.0 -83.0 -84.0 -85.0 -83.0 -78.0 -79.0 -80.0 -79.0 -78.0 -77.0 -76.0 -75.0 -75.0 -77.0 -79.0 -77.0 -78.0 -74.0 -76.0 -77.0 -77.0 -74.0 -74.0 -73.0 -73.0 -73.0 -72.0 -70.0 -70.0 -69.0 -68.0 -67.0 -69.0 -70.0 -71.0 -69.0 -69.0 -69.0 -69.0 -68.0 -67.0 -67.0 -67.0 -67.0 -67.0 -67.0 -66.0 -65.0 -64.0 -63.0 -61.0 -60.0 -59.0 -58.0 -57.0 -57.0 -57.0 -56.0 -55.0 -54.0 -54.0 -54.0 -53.0 -51.0 -51.0 -51.0 -50.0 -49.0 -49.0 -52.0 -53.0 -54.0 -54.0 -53.0 -51.0 -49.0 -47.0 -45.0 -44.0 -43.0 -43.0 -42.0 -41.0 -40.0 -39.0 -38.0 -37.0 -37.0 -37.0 -38.0 -42.0 -47.0 -53.0 -44.0 -47.0 -54.0 -51.0 -52.0 -55.0 -54.0 -53.0 -52.0 -52.0 -51.0 -51.0 -50.0 -50.0 -48.0 -47.0 -47.0 -47.0 -46.0 -46.0 -44.0 -43.0 -43.0 -43.0 -43.0 -43.0 -43.0 -43.0 -43.0 -42.0 -42.0 -41.0 -40.0 -39.0 -38.0 -38.0 -38.0 -37.0 -36.0 -35.0 -35.0 -35.0 -36.0 -38.0 -38.0 -37.0 -36.0 -35.0 -33.0 -31.0 -30.0 -30.0 -29.0 -29.0 -28.0 -27.0 -26.0 -26.0 -25.0 -25.0 -24.0 -23.0 -23.0 -22.0 -22.0 -23.0 -23.0 -23.0 -24.0 -24.0 -24.0 -23.0 -22.0 -21.0 -20.0 -19.0 -19.0 -17.0 -14.0 -9.0 -2.0 0.0 -1.0 -1.0 -2.0 -3.0 -1.0 0.0 6.0 16.0 8.0 10.0 10.0 12.0 13.0 16.0 16.0 19.0 21.0 29.0 33.0 33.0 46.0 34.0 44.0 46.0 55.0 48.0 48.0 54.0 65.0 92.0 76.0 95.0 98.0 127.0 106.0 97.0 68.0 56.0 52.0 58.0 64.0 58.0 56.0 42.0 43.0 40.0 45.0 58.0 53.0 34.0 15.0 11.0 7.0 10.0 0.0 -7.0 -7.0
208.0 224.0 235.0 222.0 241.0 246.0 261.0 272.0 283.0 285.0 333.0 322.0 465.0 254.0 174.0 143.0 144.0 106.0 117.0 234.0 169.0 182.0 216.0 172.0 159.0 185.0 220.0 229.0 212.0 325.0 404.0 344.0 306.0 401.0 246.0 335.0 307.0 286.0 208.0 218.0 200.0 184.0 186.0 201.0 108.0 28.0 -36.0 -61.0 -65.0 -66.0 -59.0 -56.0 -62.0 -66.0 -68.0 -70.0 -75.0 -63.0 -67.0 -70.0 -67.0 -67.0 -73.0 -77.0 -82.0 -82.0 -85.0 -76.0 -77.0 -66.0 -72.0 -75.0 -75.0 -62.0 -76.0 -77.0 -59.0 -59.0 -65.0 -68.0 -64.0 -63.0 -66.0 -78.0 -71.0 -71.0 -71.0 -71.0 -67.0 -70.0 -71.0 -72.0 -73.0 -70.0 -74.0 -75.0 -78.0 -82.0 -84.0 -94.0 -85.0 -70.0 -78.0 -79.0 -75.0 -90.0 -90.0 -74.0 -80.0 -82.0 -81.0 -82.0 -84.0 -81.0 -81.0 -77.0 -74.0 -81.0 -80.0 -75.0 -80.0 -78.0 -73.0 -77.0 -78.0 -77.0 -76.0 -77.0 -80.0 -80.0 -78.0 -72.0 -72.0 -73.0 -70.0 -75.0 -76.0 -79.0 -75.0 -79.0 -78.0 -79.0 -78.0 -84.0 -85.0 -82.0 -82.0 -86.0 -80.0 -78.0 -83.0 -84.0 -80.0 -79.0 -77.0 -84.0 -85.0 -89.0 -89.0 -88.0 -89.0 -86.0 -88.0 -87.0 -86.0 -83.0 -84.0 -84.0 -83.0 -82.0 -87.0 -83.0 -80.0 -79.0 -76.0 -79.0 -77.0 -75.0 -75.0 -74.0 -76.0 -75.0 -76.0 -78.0 -78.0 -75.0 -77.0 -79.0 -76.0 -75.0 -74.0 -73.0 -73.0 -73.0 -73.0 -72.0 -70.0 -68.0 -68.0 -69.0 -69.0 -71.0 -70.0 -70.0 -71.0 -69.0 -67.0 -66.0 -66.0 -65.0 -65.0 -65.0 -66.0 -65.0 -65.0 -64.0 -63.0 -62.0 -61.0 -60.0 -59.0 -58.0 -58.0 -57.0 -56.0 -54.0 -53.0 -51.0 -50.0 -50.0 -50.0 -50.0 -51.0 -51.0 -51.0 -51.0 -52.0 -54.0 -54.0 -54.0 -53.0 -52.0 -49.0 -46.0 -44.0 -44.0 -44.0 -43.0 -43.0 -42.0 -41.0 -40.0 -39.0 -39.0 -38.0 -38.0 -38.0 -40.0 -44.0 -48.0 -53.0 -49.0 -49.0 -51.0 -51.0 -52.0 -54.0 -54.0 -53.0 -53.0 -52.0 -50.0 -49.0 -49.0 -49.0 -48.0 -47.0 -47.0 -47.0 -45.0 -46.0 -44.0 -43.0 -43.0 -43.0 -43.0 -43.0 -43.0 -43.0 -43.0 -43.0 -42.0 -41.0 -40.0 -39.0 -39.0 -38.0 -38.0 -38.0 -37.0 -36.0 -36.0 -36.0 -37.0 -39.0 -39.0 -38.0 -36.0 -34.0 -32.0 -29.0 -28.0 -27.0 -26.0 -26.0 -25.0 -25.0 -25.0 -25.0 -24.0 -24.0 -23.0 -22.0 -22.0 -21.0 -21.0 -22.0 -22.0 -23.0 -23.0 -24.0 -23.0 -22.0 -22.0 -21.0 -20.0 -19.0 -19.0 -17.0 -13.0 -9.0 -4.0 0.0 0.0 0.0 -1.0 -3.0 0.0 4.0 10.0 11.0 28.0 11.0 15.0 26.0 18.0 15.0 18.0 20.0 23.0 23.0 38.0 38.0 46.0 46.0 37.0 53.0 46.0 49.0 60.0 56.0 65.0 76.0 93.0 97.0 99.0 95.0 97.0 84.0 74.0 71.0 72.0 70.0 70.0 63.0 58.0 50.0 62.0 48.0 49.0 49.0 44.0 51.0 38.0 38.0 27.0 26.0 -6.0 -12.0 -10.0
292.0 327.0 281.0 283.0 288.0 271.0 300.0 361.0 512.0 406.0 423.0 352.0 285.0 210.0 191.0 213.0 185.0 147.0 133.0 233.0 151.0 256.0 205.0 200.0 195.0 238.0 359.0 402.0 348.0 474.0 418.0 399.0 308.0 282.0 207.0 299.0 280.0 220.0 226.0 193.0 125.0 157.0 202.0 117.0 98.0 43.0 -21.0 -47.0 -58.0 -56.0 -55.0 -53.0 -59.0 -59.0 -68.0 -71.0 -65.0 -62.0 -65.0 -71.0 -68.0 -65.0 -73.0 -78.0 -80.0 -85.0 -87.0 -73.0 -67.0 -70.0 -64.0 -60.0 -60.0 -63.0 -66.0 -67.0 -63.0 -63.0 -62.0 -63.0 -63.0 -67.0 -72.0 -80.0 -76.0 -77.0 -71.0 -72.0 -65.0 -71.0 -72.0 -69.0 -71.0 -70.0 -73.0 -72.0 -71.0 -87.0 -86.0 -92.0 -73.0 -69.0 -75.0 -78.0 -81.0 -86.0 -85.0 -83.0 -84.0 -81.0 -85.0 -86.0 -81.0 -79.0 -80.0 -78.0 -77.0 -80.0 -78.0 -74.0 -78.0 -77.0 -75.0 -76.0 -74.0 -78.0 -76.0 -76.0 -80.0 -81.0 -76.0 -72.0 -72.0 -74.0 -71.0 -74.0 -76.0 -78.0 -76.0 -78.0 -78.0 -78.0 -79.0 -82.0 -86.0 -81.0 -81.0 -84.0 -80.0 -78.0 -81.0 -82.0 -82.0 -82.0 -84.0 -82.0 -84.0 -88.0 -85.0 -88.0 -89.0 -86.0 -85.0 -87.0 -86.0 -84.0 -84.0 -86.0 -82.0 -84.0 -82.0 -80.0 -82.0 -79.0 -77.0 -81.0 -78.0 -79.0 -75.0 -74.0 -77.0 -74.0 -74.0 -77.0 -78.0 -77.0 -75.0 -79.0 -75.0 -76.0 -74.0 -74.0 -71.0 -73.0 -73.0 -72.0 -72.0 -69.0 -68.0 -70.0 -70.0 -70.0 -70.0 -71.0 -71.0 -67.0 -65.0 -64.0 -64.0 -63.0 -63.0 -64.0 -64.0 -64.0 -63.0 -62.0 -61.0 -60.0 -59.0 -58.0 -58.0 -57.0 -57.0 -56.0 -55.0 -52.0 -50.0 -47.0 -45.0 -44.0 -46.0 -49.0 -51.0 -52.0 -53.0 -54.0 -56.0 -56.0 -56.0 -54.0 -53.0 -51.0 -48.0 -45.0 -42.0 -42.0 -43.0 -43.0 -43.0 -42.0 -41.0 -40.0 -39.0 -39.0 -39.0 -38.0 -39.0 -42.0 -45.0 -49.0 -53.0 -53.0 -50.0 -51.0 -50.0 -51.0 -54.0 -53.0 -53.0 -52.0 -52.0 -50.0 -48.0 -47.0 -48.0 -48.0 -48.0 -47.0 -46.0 -45.0 -45.0 -43.0 -43.0 -43.0 -42.0 -42.0 -42.0 -43.0 -43.0 -43.0 -43.0 -42.0 -41.0 -40.0 -40.0 -39.0 -38.0 -38.0 -38.0 -37.0 -36.0 -36.0 -37.0 -38.0 -39.0 -41.0 -38.0 -35.0 -33.0 -31.0 -28.0 -26.0 -24.0 -23.0 -22.0 -22.0 -23.0 -24.0 -24.0 -23.0 -23.0 -22.0 -22.0 -21.0 -20.0 -20.0 -20.0 -21.0 -22.0 -23.0 -23.0 -23.0 -22.0 -21.0 -20.0 -20.0 -19.0 -18.0 -15.0 -12.0 -9.0 -4.0 1.0 0.0 0.0 0.0 -2.0 2.0 5.0 12.0 14.0 28.0 24.0 14.0 32.0 39.0 35.0 19.0 25.0 17.0 26.0 35.0 33.0 35.0 46.0 38.0 44.0 54.0 57.0 60.0 71.0 76.0 100.0 89.0 83.0 107.0 88.0 92.0 95.0 93.0 105.0 89.0 97.0 77.0 66.0 60.0 63.0 61.0 55.0 48.0 55.0 97.0 37.0 24.0 38.0 5.0 13.0 -11.0 -13.0 -13.0
304.0 336.0 286.0 263.0 289.0 299.0 360.0 524.0 403.0 458.0 441.0 276.0 207.0 233.0 255.0 273.0 218.0 184.0 191.0 184.0 235.0 247.0 246.0 258.0 264.0 361.0 423.0 385.0 495.0 501.0 461.0 394.0 327.0 312.0 264.0 233.0 253.0 251.0 223.0 190.0 217.0 178.0 120.0 101.0 92.0 84.0 26.0 -33.0 -45.0 -54.0 -54.0 -56.0 -63.0 -67.0 -70.0 -70.0 -72.0 -66.0 -72.0 -71.0 -72.0 -66.0 -70.0 -74.0 -75.0 -83.0 -87.0 -82.0 -70.0 -67.0 -65.0 -65.0 -57.0 -65.0 -69.0 -69.0 -70.0 -70.0 -60.0 -63.0 -59.0 -65.0 -73.0 -72.0 -79.0 -78.0 -70.0 -70.0 -69.0 -72.0 -66.0 -70.0 -70.0 -70.0 -71.0 -72.0 -72.0 -88.0 -90.0 -77.0 -80.0 -69.0 -74.0 -77.0 -77.0 -75.0 -89.0 -92.0 -80.0 -82.0 -84.0 -84.0 -82.0 -78.0 -80.0 -80.0 -75.0 -78.0 -76.0 -78.0 -76.0 -75.0 -73.0 -77.0 -78.0 -77.0 -76.0 -75.0 -81.0 -78.0 -77.0 -72.0 -71.0 -70.0 -72.0 -71.0 -75.0 -75.0 -76.0 -74.0 -79.0 -77.0 -79.0 -81.0 -86.0 -79.0 -79.0 -83.0 -81.0 -78.0 -80.0 -80.0 -83.0 -82.0 -86.0 -78.0 -85.0 -85.0 -88.0 -87.0 -89.0 -86.0 -84.0 -86.0 -84.0 -84.0 -85.0 -83.0 -84.0 -83.0 -81.0 -83.0 -82.0 -81.0 -82.0 -79.0 -80.0 -80.0 -77.0 -74.0 -77.0 -76.0 -79.0 -79.0 -76.0 -76.0 -77.0 -75.0 -75.0 -73.0 -74.0 -76.0 -74.0 -74.0 -72.0 -72.0 -71.0 -71.0 -70.0 -70.0 -69.0 -71.0 -72.0 -73.0 -68.0 -69.0 -62.0 -62.0 -61.0 -61.0 -61.0 -61.0 -62.0 -61.0 -61.0 -60.0 -59.0 -58.0 -58.0 -57.0 -57.0 -56.0 -56.0 -55.0 -53.0 -50.0 -47.0 -45.0 -41.0 -38.0 -44.0 -48.0 -51.0 -54.0 -56.0 -58.0 -59.0 -58.0 -57.0 -55.0 -53.0 -50.0 -47.0 -43.0 -39.0 -40.0 -42.0 -43.0 -43.0 -42.0 -41.0 -40.0 -39.0 -39.0 -39.0 -39.0 -40.0 -43.0 -46.0 -49.0 -52.0 -52.0 -52.0 -52.0 -48.0 -51.0 -53.0 -53.0 -52.0 -52.0 -52.0 -50.0 -49.0 -48.0 -48.0 -48.0 -48.0 -47.0 -46.0 -45.0 -44.0 -43.0 -42.0 -42.0 -42.0 -42.0 -42.0 -42.0 -42.0 -43.0 -43.0 -42.0 -42.0 -41.0 -40.0 -39.0 -38.0 -38.0 -38.0 -37.0 -37.0 -37.0 -37.0 -37.0 -38.0 -38.0 -36.0 -34.0 -32.0 -30.0 -28.0 -25.0 -22.0 -20.0 -19.0 -20.0 -20.0 -22.0 -23.0 -22.0 -22.0 -21.0 -21.0 -20.0 -19.0 -19.0 -19.0 -20.0 -21.0 -22.0 -22.0 -22.0 -21.0 -21.0 -20.0 -19.0 -19.0 -17.0 -14.0 -11.0 -7.0 -3.0 3.0 0.0 1.0 -1.0 0.0 4.0 4.0 13.0 18.0 39.0 30.0 29.0 29.0 35.0 48.0 40.0 27.0 24.0 28.0 30.0 29.0 33.0 34.0 38.0 47.0 47.0 60.0 61.0 66.0 69.0 69.0 75.0 73.0 91.0 85.0 85.0 96.0 85.0 95.0 103.0 107.0 90.0 71.0 64.0 64.0 71.0 59.0 53.0 52.0 61.0 57.0 48.0 33.0 3.0 -9.0 -12.0 -16.0 -14.0
273.0 259.0 239.0 280.0 306.0 376.0 406.0 454.0 375.0 488.0 288.0 252.0 272.0 253.0 294.0 260.0 257.0 228.0 228.0 278.0 258.0 300.0 330.0 331.0 342.0 390.0 293.0 387.0 460.0 430.0 396.0 413.0 364.0 380.0 268.0 209.0 186.0 245.0 159.0 188.0 258.0 189.0 126.0 81.0 70.0 73.0 90.0 -16.0 -39.0 -48.0 -56.0 -63.0 -63.0 -67.0 -61.0 -71.0 -71.0 -64.0 -66.0 -77.0 -71.0 -71.0 -62.0 -65.0 -65.0 -75.0 -80.0 -84.0 -86.0 -70.0 -65.0 -65.0 -63.0 -63.0 -78.0 -68.0 -70.0 -65.0 -68.0 -67.0 -59.0 -64.0 -73.0 -74.0 -81.0 -78.0 -72.0 -70.0 -71.0 -73.0 -65.0 -69.0 -70.0 -70.0 -76.0 -75.0 -73.0 -91.0 -84.0 -80.0 -82.0 -72.0 -74.0 -82.0 -74.0 -79.0 -82.0 -102.0 -83.0 -82.0 -82.0 -82.0 -79.0 -72.0 -80.0 -80.0 -75.0 -76.0 -76.0 -78.0 -75.0 -72.0 -74.0 -81.0 -78.0 -73.0 -73.0 -73.0 -76.0 -79.0 -75.0 -71.0 -70.0 -69.0 -70.0 -72.0 -71.0 -74.0 -76.0 -75.0 -77.0 -77.0 -78.0 -81.0 -82.0 -81.0 -79.0 -80.0 -82.0 -78.0 -77.0 -79.0 -79.0 -83.0 -87.0 -86.0 -84.0 -82.0 -85.0 -89.0 -89.0 -84.0 -82.0 -85.0 -86.0 -86.0 -87.0 -84.0 -83.0 -84.0 -80.0 -82.0 -83.0 -83.0 -82.0 -81.0 -78.0 -81.0 -77.0 -74.0 -76.0 -77.0 -77.0 -78.0 -76.0 -77.0 -75.0 -77.0 -75.0 -73.0 -74.0 -74.0 -73.0 -74.0 -75.0 -73.0 -74.0 -74.0 -70.0 -72.0 -73.0 -73.0 -73.0 -73.0 -70.0 -71.0 -62.0 -59.0 -59.0 -58.0 -59.0 -59.0 -59.0 -59.0 -59.0 -58.0 -57.0 -57.0 -56.0 -56.0 -55.0 -55.0 -55.0 -53.0 -51.0 -49.0 -46.0 -44.0 -40.0 -38.0 -43.0 -48.0 -52.0 -56.0 -59.0 -62.0 -62.0 -61.0 -58.0 -55.0 -53.0 -50.0 -47.0 -43.0 -40.0 -40.0 -41.0 -41.0 -43.0 -42.0 -40.0 -39.0 -39.0 -38.0 -38.0 -39.0 -41.0 -44.0 -46.0 -48.0 -51.0 -52.0 -52.0 -52.0 -50.0 -51.0 -52.0 -52.0 -52.0 -52.0 -51.0 -50.0 -49.0 -48.0 -48.0 -48.0 -48.0 -47.0 -46.0 -44.0 -43.0 -42.0 -42.0 -42.0 -42.0 -42.0 -42.0 -42.0 -42.0 -42.0 -42.0 -42.0 -42.0 -41.0 -40.0 -39.0 -38.0 -38.0 -37.0 -37.0 -37.0 -36.0 -36.0 -36.0 -36.0 -35.0 -34.0 -33.0 -31.0 -29.0 -27.0 -24.0 -20.0 -17.0 -16.0 -17.0 -18.0 -20.0 -22.0 -21.0 -21.0 -20.0 -20.0 -19.0 -19.0 -18.0 -19.0 -20.0 -21.0 -22.0 -21.0 -21.0 -21.0 -20.0 -19.0 -19.0 -18.0 -16.0 -13.0 -11.0 -7.0 -3.0 3.0 0.0 -2.0 0.0 5.0 3.0 11.0 10.0 19.0 30.0 24.0 35.0 32.0 34.0 50.0 34.0 28.0 32.0 28.0 28.0 34.0 32.0 37.0 41.0 44.0 48.0 51.0 50.0 59.0 62.0 60.0 81.0 82.0 73.0 85.0 86.0 95.0 107.0 87.0 91.0 79.0 88.0 77.0 71.0 64.0 58.0 54.0 33.0 44.0 49.0 62.0 53.0 24.0 19.0 15.0 15.0 -9.0 -10.0
230.0 273.0 251.0 261.0 330.0 375.0 381.0 388.0 375.0 343.0 270.0 286.0 282.0 274.0 271.0 259.0 267.0 285.0 283.0 293.0 348.0 338.0 321.0 295.0 376.0 359.0 312.0 312.0 423.0 435.0 467.0 347.0 271.0 246.0 276.0 182.0 243.0 212.0 117.0 210.0 114.0 99.0 77.0 84.0 76.0 70.0 150.0 0.0 -38.0 -48.0 -55.0 -65.0 -63.0 -66.0 -69.0 -73.0 -72.0 -67.0 -64.0 -70.0 -77.0 -66.0 -64.0 -59.0 -60.0 -63.0 -67.0 -76.0 -79.0 -85.0 -78.0 -61.0 -65.0 -71.0 -72.0 -84.0 -71.0 -68.0 -74.0 -69.0 -62.0 -64.0 -73.0 -78.0 -78.0 -80.0 -77.0 -70.0 -71.0 -69.0 -68.0 -70.0 -69.0 -70.0 -78.0 -79.0 -71.0 -90.0 -74.0 -75.0 -77.0 -72.0 -71.0 -79.0 -84.0 -79.0 -84.0 -122.0 -91.0 -84.0 -80.0 -80.0 -77.0 -73.0 -81.0 -79.0 -72.0 -77.0 -75.0 -77.0 -77.0 -71.0 -74.0 -82.0 -79.0 -74.0 -76.0 -75.0 -75.0 -75.0 -73.0 -71.0 -70.0 -69.0 -70.0 -74.0 -71.0 -74.0 -74.0 -75.0 -76.0 -77.0 -81.0 -81.0 -80.0 -80.0 -80.0 -78.0 -80.0 -80.0 -77.0 -79.0 -79.0 -84.0 -86.0 -87.0 -86.0 -84.0 -85.0 -89.0 -89.0 -84.0 -83.0 -86.0 -87.0 -86.0 -84.0 -86.0 -87.0 -83.0 -81.0 -82.0 -83.0 -84.0 -81.0 -80.0 -79.0 -80.0 -75.0 -75.0 -78.0 -80.0 -80.0 -79.0 -77.0 -77.0 -74.0 -77.0 -76.0 -72.0 -73.0 -74.0 -75.0 -74.0 -75.0 -74.0 -71.0 -70.0 -69.0 -73.0 -76.0 -75.0 -70.0 -70.0 -69.0 -69.0 -65.0 -56.0 -56.0 -56.0 -57.0 -57.0 -57.0 -57.0 -57.0 -57.0 -56.0 -55.0 -55.0 -55.0 -54.0 -54.0 -54.0 -52.0 -50.0 -48.0 -46.0 -44.0 -41.0 -40.0 -43.0 -48.0 -53.0 -58.0 -62.0 -66.0 -65.0 -61.0 -58.0 -55.0 -52.0 -49.0 -46.0 -43.0 -41.0 -39.0 -39.0 -40.0 -40.0 -39.0 -38.0 -38.0 -37.0 -38.0 -38.0 -39.0 -42.0 -44.0 -46.0 -48.0 -50.0 -51.0 -52.0 -53.0 -53.0 -52.0 -52.0 -52.0 -52.0 -52.0 -51.0 -50.0 -49.0 -49.0 -48.0 -48.0 -48.0 -47.0 -46.0 -45.0 -43.0 -42.0 -41.0 -42.0 -42.0 -42.0 -42.0 -42.0 -42.0 -42.0 -42.0 -42.0 -42.0 -41.0 -40.0 -39.0 -38.0 -38.0 -37.0 -37.0 -37.0 -36.0 -35.0 -34.0 -34.0 -34.0 -33.0 -31.0 -30.0 -28.0 -27.0 -25.0 -19.0 -14.0 -13.0 -15.0 -18.0 -20.0 -21.0 -21.0 -20.0 -20.0 -19.0 -18.0 -18.0 -18.0 -18.0 -19.0 -20.0 -21.0 -21.0 -20.0 -20.0 -20.0 -19.0 -18.0 -17.0 -16.0 -13.0 -11.0 -7.0 -4.0 1.0 4.0 0.0 0.0 3.0 8.0 10.0 18.0 17.0 27.0 35.0 42.0 55.0 48.0 38.0 28.0 30.0 38.0 25.0 29.0 32.0 35.0 40.0 41.0 46.0 54.0 62.0 60.0 63.0 74.0 80.0 76.0 89.0 90.0 79.0 83.0 93.0 102.0 88.0 86.0 75.0 91.0 87.0 72.0 71.0 65.0 32.0 71.0 78.0 62.0 88.0 78.0 54.0 6.0 0.0 -5.0 -17.0 -13.0
253.0 233.0 260.0 250.0 352.0 375.0 366.0 373.0 322.0 313.0 231.0 277.0 290.0 287.0 279.0 274.0 269.0 299.0 362.0 402.0 303.0 287.0 264.0 432.0 297.0 243.0 315.0 367.0 432.0 402.0 383.0 400.0 306.0 284.0 274.0 194.0 307.0 245.0 135.0 99.0 97.0 76.0 90.0 100.0 117.0 132.0 205.0 87.0 -29.0 -41.0 -47.0 -56.0 -66.0 -67.0 -69.0 -68.0 -73.0 -72.0 -67.0 -67.0 -79.0 -82.0 -64.0 -62.0 -62.0 -61.0 -64.0 -65.0 -70.0 -73.0 -75.0 -65.0 -82.0 -70.0 -75.0 -78.0 -84.0 -67.0 -69.0 -73.0 -66.0 -63.0 -75.0 -83.0 -80.0 -80.0 -73.0 -71.0 -70.0 -69.0 -69.0 -69.0 -72.0 -75.0 -75.0 -79.0 -71.0 -87.0 -72.0 -77.0 -73.0 -77.0 -71.0 -84.0 -81.0 -80.0 -74.0 -132.0 -89.0 -80.0 -78.0 -80.0 -78.0 -79.0 -79.0 -80.0 -70.0 -74.0 -79.0 -78.0 -76.0 -74.0 -76.0 -82.0 -82.0 -76.0 -81.0 -76.0 -77.0 -74.0 -73.0 -71.0 -70.0 -71.0 -73.0 -73.0 -73.0 -73.0 -75.0 -75.0 -76.0 -77.0 -79.0 -81.0 -80.0 -80.0 -81.0 -79.0 -78.0 -82.0 -80.0 -79.0 -79.0 -82.0 -85.0 -87.0 -80.0 -85.0 -86.0 -90.0 -85.0 -86.0 -84.0 -88.0 -82.0 -85.0 -85.0 -88.0 -86.0 -83.0 -83.0 -84.0 -83.0 -82.0 -80.0 -80.0 -79.0 -77.0 -77.0 -78.0 -80.0 -79.0 -75.0 -77.0 -77.0 -76.0 -76.0 -76.0 -76.0 -73.0 -78.0 -76.0 -76.0 -75.0 -73.0 -74.0 -71.0 -70.0 -73.0 -73.0 -75.0 -72.0 -70.0 -69.0 -68.0 -69.0 -66.0 -53.0 -54.0 -54.0 -55.0 -55.0 -55.0 -56.0 -56.0 -55.0 -55.0 -54.0 -54.0 -54.0 -53.0 -53.0 -53.0 -52.0 -50.0 -48.0 -46.0 -44.0 -42.0 -41.0 -43.0 -48.0 -54.0 -59.0 -65.0 -70.0 -66.0 -61.0 -58.0 -55.0 -52.0 -49.0 -46.0 -43.0 -41.0 -39.0 -38.0 -38.0 -37.0 -35.0 -35.0 -35.0 -35.0 -36.0 -38.0 -40.0 -42.0 -44.0 -46.0 -47.0 -49.0 -50.0 -51.0 -52.0 -53.0 -53.0 -53.0 -53.0 -53.0 -53.0 -52.0 -50.0 -49.0 -49.0 -48.0 -48.0 -48.0 -47.0 -47.0 -45.0 -44.0 -42.0 -42.0 -42.0 -42.0 -42.0 -42.0 -42.0 -42.0 -42.0 -42.0 -42.0 -41.0 -41.0 -40.0 -39.0 -39.0 -38.0 -37.0 -37.0 -36.0 -36.0 -35.0 -34.0 -33.0 -33.0 -32.0 -31.0 -29.0 -28.0 -26.0 -24.0 -20.0 -16.0 -13.0 -16.0 -18.0 -21.0 -22.0 -21.0 -20.0 -19.0 -18.0 -17.0 -17.0 -17.0 -18.0 -19.0 -20.0 -20.0 -20.0 -20.0 -20.0 -19.0 -19.0 -18.0 -17.0 -16.0 -14.0 -11.0 -8.0 -5.0 -1.0 7.0 0.0 0.0 4.0 7.0 15.0 27.0 19.0 38.0 40.0 43.0 46.0 32.0 38.0 27.0 34.0 28.0 27.0 29.0 32.0 36.0 40.0 41.0 46.0 48.0 53.0 59.0 65.0 75.0 102.0 100.0 116.0 96.0 82.0 83.0 102.0 99.0 95.0 86.0 83.0 80.0 88.0 83.0 74.0 56.0 36.0 62.0 76.0 85.0 68.0 81.0 63.0 14.0 -10.0 -10.0 -16.0 -19.0
225.0 218.0 265.0 250.0 309.0 356.0 284.0 292.0 324.0 264.0 289.0 262.0 319.0 267.0 284.0 338.0 291.0 486.0 384.0 301.0 282.0 261.0 304.0 347.0 255.0 242.0 231.0 348.0 358.0 338.0 372.0 382.0 304.0 292.0 231.0 229.0 328.0 289.0 171.0 116.0 83.0 74.0 66.0 71.0 88.0 107.0 119.0 138.0 -15.0 -35.0 -40.0 -47.0 -58.0 -65.0 -68.0 -69.0 -68.0 -70.0 -71.0 -68.0 -63.0 -73.0 -71.0 -73.0 -66.0 -59.0 -48.0 -62.0 -66.0 -68.0 -66.0 -69.0 -73.0 -93.0 -68.0 -78.0 -80.0 -87.0 -68.0 -70.0 -67.0 -71.0 -71.0 -84.0 -79.0 -82.0 -78.0 -69.0 -74.0 -67.0 -67.0 -68.0 -72.0 -73.0 -78.0 -80.0 -78.0 -83.0 -80.0 -75.0 -72.0 -85.0 -73.0 -84.0 -81.0 -80.0 -83.0 -92.0 -98.0 -82.0 -74.0 -77.0 -77.0 -77.0 -78.0 -79.0 -71.0 -73.0 -80.0 -73.0 -74.0 -72.0 -76.0 -83.0 -81.0 -72.0 -73.0 -76.0 -77.0 -70.0 -72.0 -69.0 -67.0 -69.0 -71.0 -70.0 -73.0 -73.0 -73.0 -76.0 -75.0 -75.0 -78.0 -80.0 -80.0 -80.0 -82.0 -79.0 -80.0 -79.0 -80.0 -79.0 -81.0 -85.0 -86.0 -86.0 -82.0 -88.0 -86.0 -90.0 -84.0 -90.0 -88.0 -84.0 -86.0 -85.0 -84.0 -88.0 -86.0 -81.0 -82.0 -83.0 -82.0 -82.0 -81.0 -79.0 -81.0 -80.0 -81.0 -80.0 -79.0 -79.0 -74.0 -77.0 -78.0 -77.0 -79.0 -77.0 -76.0 -74.0 -74.0 -76.0 -73.0 -74.0 -74.0 -73.0 -71.0 -72.0 -75.0 -73.0 -70.0 -69.0 -70.0 -69.0 -67.0 -65.0 -65.0 -60.0 -56.0 -54.0 -53.0 -53.0 -53.0 -54.0 -54.0 -54.0 -54.0 -53.0 -53.0 -53.0 -52.0 -52.0 -52.0 -51.0 -49.0 -47.0 -46.0 -44.0 -43.0 -42.0 -43.0 -48.0 -53.0 -58.0 -65.0 -70.0 -64.0 -60.0 -57.0 -54.0 -51.0 -49.0 -46.0 -43.0 -41.0 -39.0 -38.0 -37.0 -35.0 -31.0 -31.0 -33.0 -34.0 -36.0 -38.0 -41.0 -43.0 -44.0 -45.0 -47.0 -48.0 -49.0 -50.0 -51.0 -52.0 -53.0 -54.0 -54.0 -54.0 -53.0 -52.0 -50.0 -49.0 -47.0 -48.0 -48.0 -47.0 -47.0 -47.0 -46.0 -44.0 -43.0 -42.0 -42.0 -42.0 -42.0 -42.0 -43.0 -42.0 -42.0 -42.0 -41.0 -41.0 -41.0 -40.0 -39.0 -39.0 -38.0 -37.0 -37.0 -36.0 -36.0 -35.0 -34.0 -33.0 -32.0 -31.0 -30.0 -29.0 -28.0 -26.0 -24.0 -21.0 -19.0 -17.0 -17.0 -20.0 -22.0 -22.0 -21.0 -20.0 -19.0 -18.0 -17.0 -16.0 -17.0 -18.0 -19.0 -20.0 -20.0 -20.0 -20.0 -19.0 -19.0 -19.0 -18.0 -17.0 -16.0 -14.0 -12.0 -9.0 -6.0 -2.0 8.0 3.0 1.0 1.0 8.0 10.0 11.0 16.0 26.0 32.0 41.0 41.0 37.0 38.0 33.0 28.0 25.0 25.0 29.0 33.0 35.0 41.0 43.0 47.0 49.0 53.0 65.0 70.0 71.0 90.0 88.0 117.0 107.0 87.0 85.0 89.0 54.0 90.0 100.0 24.0 82.0 89.0 65.0 43.0 52.0 19.0 65.0 73.0 77.0 67.0 55.0 37.0 29.0 0.0 -4.0 -11.0 -18.0
220.0 211.0 246.0 213.0 249.0 243.0 229.0 278.0 223.0 243.0 217.0 409.0 353.0 258.0 335.0 564.0 508.0 473.0 452.0 305.0 348.0 284.0 331.0 343.0 281.0 245.0 184.0 280.0 325.0 349.0 341.0 284.0 265.0 239.0 290.0 226.0 234.0 156.0 125.0 123.0 90.0 63.0 61.0 47.0 59.0 52.0 76.0 152.0 52.0 -22.0 -38.0 -35.0 -45.0 -54.0 -73.0 -69.0 -73.0 -72.0 -68.0 -58.0 -65.0 -61.0 -54.0 -56.0 -62.0 -72.0 -61.0 -51.0 -61.0 -64.0 -80.0 -79.0 -71.0 -77.0 -85.0 -70.0 -80.0 -77.0 -88.0 -76.0 -65.0 -68.0 -78.0 -83.0 -79.0 -79.0 -79.0 -69.0 -74.0 -73.0 -69.0 -72.0 -72.0 -75.0 -79.0 -79.0 -74.0 -82.0 -83.0 -76.0 -77.0 -81.0 -74.0 -81.0 -77.0 -83.0 -87.0 -80.0 -140.0 -82.0 -76.0 -76.0 -77.0 -75.0 -79.0 -75.0 -73.0 -69.0 -81.0 -74.0 -74.0 -75.0 -80.0 -85.0 -81.0 -72.0 -78.0 -76.0 -72.0 -69.0 -71.0 -71.0 -69.0 -71.0 -72.0 -73.0 -73.0 -73.0 -72.0 -76.0 -75.0 -75.0 -79.0 -80.0 -79.0 -80.0 -80.0 -82.0 -79.0 -77.0 -78.0 -79.0 -82.0 -85.0 -85.0 -85.0 -83.0 -88.0 -83.0 -86.0 -89.0 -87.0 -89.0 -83.0 -85.0 -85.0 -84.0 -88.0 -86.0 -84.0 -81.0 -82.0 -79.0 -82.0 -80.0 -80.0 -80.0 -82.0 -83.0 -82.0 -82.0 -79.0 -82.0 -80.0 -79.0 -80.0 -79.0 -77.0 -74.0 -75.0 -74.0 -73.0 -73.0 -75.0 -73.0 -72.0 -73.0 -72.0 -74.0 -71.0 -70.0 -70.0 -68.0 -66.0 -65.0 -65.0 -63.0 -62.0 -61.0 -59.0 -56.0 -54.0 -52.0 -52.0 -53.0 -53.0 -53.0 -53.0 -52.0 -52.0 -51.0 -51.0 -51.0 -50.0 -48.0 -47.0 -45.0 -44.0 -43.0 -43.0 -43.0 -46.0 -49.0 -53.0 -58.0 -63.0 -61.0 -58.0 -55.0 -53.0 -50.0 -48.0 -45.0 -43.0 -41.0 -39.0 -37.0 -35.0 -33.0 -29.0 -28.0 -30.0 -32.0 -35.0 -38.0 -41.0 -43.0 -44.0 -45.0 -46.0 -47.0 -48.0 -49.0 -50.0 -52.0 -53.0 -54.0 -55.0 -55.0 -54.0 -52.0 -50.0 -49.0 -48.0 -48.0 -48.0 -47.0 -47.0 -47.0 -46.0 -45.0 -44.0 -43.0 -43.0 -43.0 -43.0 -43.0 -43.0 -43.0 -42.0 -42.0 -41.0 -41.0 -41.0 -40.0 -39.0 -39.0 -38.0 -37.0 -37.0 -36.0 -35.0 -34.0 -34.0 -33.0 -32.0 -31.0 -30.0 -29.0 -28.0 -26.0 -25.0 -23.0 -21.0 -20.0 -19.0 -21.0 -23.0 -23.0 -22.0 -20.0 -19.0 -18.0 -16.0 -15.0 -16.0 -17.0 -19.0 -19.0 -20.0 -20.0 -19.0 -19.0 -19.0 -18.0 -18.0 -18.0 -17.0 -15.0 -13.0 -11.0 -8.0 -4.0 11.0 7.0 2.0 9.0 10.0 22.0 16.0 19.0 30.0 38.0 37.0 41.0 42.0 33.0 32.0 32.0 27.0 26.0 29.0 35.0 35.0 40.0 43.0 45.0 45.0 52.0 57.0 61.0 68.0 72.0 83.0 100.0 88.0 80.0 90.0 89.0 87.0 78.0 95.0 8.0 60.0 25.0 28.0 -9.0 19.0 52.0 67.0 63.0 33.0 52.0 27.0 0.0 -8.0 -8.0 -4.0 -22.0 -19.0
199.0 206.0 220.0 243.0 210.0 241.0 388.0 227.0 268.0 247.0 351.0 325.0 338.0 261.0 319.0 538.0 474.0 578.0 413.0 374.0 494.0 301.0 221.0 332.0 271.0 326.0 184.0 216.0 302.0 294.0 270.0 215.0 214.0 236.0 212.0 219.0 227.0 142.0 103.0 85.0 77.0 73.0 69.0 69.0 54.0 41.0 18.0 25.0 0.0 -12.0 -33.0 -34.0 -35.0 -43.0 -62.0 -73.0 -76.0 -70.0 -75.0 -75.0 -66.0 -58.0 -57.0 -56.0 -61.0 -68.0 -62.0 -55.0 -54.0 -58.0 -67.0 -78.0 -69.0 -67.0 -81.0 -68.0 -74.0 -83.0 -85.0 -78.0 -68.0 -68.0 -74.0 -76.0 -78.0 -77.0 -81.0 -70.0 -71.0 -75.0 -71.0 -73.0 -73.0 -76.0 -78.0 -76.0 -73.0 -78.0 -82.0 -76.0 -72.0 -80.0 -76.0 -74.0 -76.0 -93.0 -89.0 -73.0 -108.0 -82.0 -77.0 -76.0 -76.0 -78.0 -73.0 -75.0 -76.0 -74.0 -80.0 -75.0 -70.0 -77.0 -79.0 -83.0 -79.0 -71.0 -77.0 -72.0 -74.0 -71.0 -71.0 -69.0 -68.0 -70.0 -72.0 -72.0 -72.0 -73.0 -75.0 -75.0 -75.0 -75.0 -80.0 -81.0 -81.0 -82.0 -82.0 -82.0 -79.0 -76.0 -78.0 -80.0 -80.0 -84.0 -86.0 -87.0 -86.0 -86.0 -82.0 -86.0 -86.0 -85.0 -88.0 -87.0 -87.0 -84.0 -84.0 -86.0 -85.0 -83.0 -83.0 -83.0 -81.0 -80.0 -81.0 -80.0 -81.0 -81.0 -82.0 -86.0 -84.0 -79.0 -80.0 -76.0 -77.0 -80.0 -78.0 -75.0 -76.0 -76.0 -72.0 -73.0 -74.0 -72.0 -72.0 -73.0 -71.0 -72.0 -72.0 -71.0 -69.0 -67.0 -65.0 -64.0 -64.0 -64.0 -62.0 -61.0 -60.0 -57.0 -56.0 -55.0 -56.0 -54.0 -52.0 -52.0 -52.0 -52.0 -51.0 -51.0 -51.0 -50.0 -50.0 -49.0 -48.0 -46.0 -45.0 -44.0 -43.0 -43.0 -43.0 -44.0 -46.0 -49.0 -51.0 -57.0 -57.0 -56.0 -54.0 -51.0 -49.0 -47.0 -45.0 -43.0 -40.0 -39.0 -37.0 -34.0 -32.0 -30.0 -30.0 -30.0 -31.0 -35.0 -39.0 -43.0 -44.0 -44.0 -44.0 -44.0 -45.0 -47.0 -48.0 -50.0 -51.0 -52.0 -54.0 -55.0 -55.0 -54.0 -52.0 -50.0 -49.0 -48.0 -48.0 -48.0 -47.0 -47.0 -47.0 -46.0 -45.0 -44.0 -44.0 -43.0 -43.0 -44.0 -44.0 -44.0 -43.0 -42.0 -41.0 -41.0 -41.0 -41.0 -40.0 -39.0 -39.0 -38.0 -37.0 -37.0 -36.0 -35.0 -34.0 -33.0 -33.0 -32.0 -31.0 -30.0 -29.0 -28.0 -27.0 -26.0 -24.0 -23.0 -22.0 -21.0 -23.0 -24.0 -23.0 -22.0 -21.0 -19.0 -18.0 -16.0 -15.0 -16.0 -17.0 -18.0 -19.0 -19.0 -19.0 -19.0 -19.0 -19.0 -18.0 -18.0 -18.0 -17.0 -16.0 -15.0 -13.0 -10.0 -5.0 15.0 12.0 10.0 6.0 16.0 23.0 25.0 25.0 34.0 40.0 35.0 30.0 30.0 29.0 35.0 33.0 30.0 24.0 28.0 31.0 36.0 39.0 43.0 59.0 55.0 51.0 56.0 63.0 67.0 72.0 78.0 97.0 61.0 74.0 93.0 80.0 25.0 47.0 1.0 48.0 -1.0 -4.0 -2.0 0.0 -9.0 17.0 60.0 43.0 56.0 -6.0 -16.0 -15.0 -15.0 -15.0 -21.0 -19.0 -19.0
202.0 189.0 203.0 202.0 265.0 364.0 287.0 283.0 210.0 337.0 246.0 423.0 293.0 196.0 296.0 399.0 440.0 509.0 445.0 481.0 448.0 343.0 276.0 321.0 358.0 246.0 198.0 180.0 239.0 200.0 215.0 209.0 214.0 200.0 207.0 236.0 210.0 126.0 104.0 89.0 71.0 68.0 80.0 62.0 48.0 26.0 30.0 43.0 40.0 -7.0 -25.0 -26.0 -29.0 -31.0 -49.0 -63.0 -73.0 -77.0 -81.0 -81.0 -78.0 -63.0 -60.0 -53.0 -60.0 -58.0 -78.0 -64.0 -68.0 -64.0 -68.0 -72.0 -83.0 -90.0 -74.0 -91.0 -69.0 -83.0 -79.0 -81.0 -73.0 -69.0 -75.0 -76.0 -77.0 -75.0 -83.0 -71.0 -72.0 -74.0 -70.0 -69.0 -71.0 -72.0 -75.0 -73.0 -72.0 -77.0 -78.0 -78.0 -74.0 -77.0 -77.0 -73.0 -77.0 -87.0 -84.0 -65.0 -87.0 -85.0 -78.0 -77.0 -75.0 -75.0 -68.0 -72.0 -74.0 -73.0 -78.0 -73.0 -76.0 -78.0 -82.0 -89.0 -78.0 -72.0 -77.0 -72.0 -72.0 -70.0 -71.0 -72.0 -68.0 -71.0 -71.0 -71.0 -69.0 -72.0 -76.0 -73.0 -74.0 -75.0 -82.0 -82.0 -80.0 -80.0 -80.0 -83.0 -81.0 -79.0 -79.0 -79.0 -80.0 -85.0 -85.0 -85.0 -85.0 -83.0 -84.0 -86.0 -84.0 -88.0 -87.0 -85.0 -85.0 -84.0 -83.0 -84.0 -87.0 -85.0 -84.0 -83.0 -82.0 -77.0 -82.0 -81.0 -80.0 -82.0 -82.0 -82.0 -82.0 -80.0 -79.0 -75.0 -78.0 -77.0 -79.0 -73.0 -72.0 -74.0 -72.0 -73.0 -72.0 -73.0 -72.0 -73.0 -74.0 -72.0 -70.0 -68.0 -66.0 -64.0 -63.0 -61.0 -62.0 -61.0 -60.0 -59.0 -58.0 -57.0 -56.0 -54.0 -53.0 -53.0 -53.0 -54.0 -52.0 -51.0 -51.0 -50.0 -50.0 -49.0 -49.0 -48.0 -47.0 -46.0 -45.0 -44.0 -43.0 -42.0 -42.0 -43.0 -44.0 -45.0 -46.0 -50.0 -52.0 -52.0 -51.0 -50.0 -48.0 -46.0 -44.0 -42.0 -40.0 -38.0 -37.0 -34.0 -33.0 -32.0 -32.0 -32.0 -33.0 -36.0 -40.0 -44.0 -45.0 -44.0 -43.0 -43.0 -44.0 -46.0 -48.0 -49.0 -51.0 -52.0 -53.0 -54.0 -55.0 -53.0 -52.0 -50.0 -48.0 -48.0 -48.0 -47.0 -47.0 -47.0 -47.0 -46.0 -46.0 -45.0 -44.0 -44.0 -44.0 -44.0 -44.0 -44.0 -43.0 -42.0 -41.0 -41.0 -41.0 -41.0 -40.0 -39.0 -39.0 -38.0 -37.0 -37.0 -36.0 -35.0 -34.0 -33.0 -32.0 -32.0 -31.0 -30.0 -30.0 -29.0 -28.0 -27.0 -26.0 -25.0 -24.0 -24.0 -24.0 -25.0 -24.0 -23.0 -21.0 -20.0 -19.0 -17.0 -16.0 -15.0 -16.0 -18.0 -19.0 -19.0 -19.0 -19.0 -19.0 -19.0 -18.0 -18.0 -18.0 -17.0 -17.0 -16.0 -15.0 -13.0 -5.0 8.0 24.0 19.0 12.0 21.0 19.0 28.0 30.0 33.0 39.0 33.0 26.0 38.0 27.0 29.0 24.0 27.0 28.0 28.0 30.0 35.0 38.0 45.0 61.0 55.0 71.0 55.0 62.0 67.0 70.0 75.0 82.0 82.0 83.0 87.0 34.0 29.0 47.0 80.0 63.0 68.0 92.0 77.0 23.0 -10.0 -11.0 -10.0 -10.0 -14.0 -14.0 -13.0 -14.0 -15.0 -16.0 -18.0 -18.0 -17.0
239.0 191.0 258.0 283.0 293.0 241.0 382.0 264.0 278.0 246.0 373.0 299.0 275.0 195.0 390.0 567.0 388.0 488.0 397.0 547.0 501.0 330.0 336.0 255.0 297.0 330.0 253.0 160.0 167.0 242.0 239.0 227.0 186.0 214.0 175.0 226.0 154.0 128.0 99.0 80.0 62.0 54.0 55.0 54.0 20.0 30.0 63.0 90.0 78.0 35.0 -14.0 -26.0 -28.0 -29.0 -33.0 -62.0 -62.0 -71.0 -81.0 -81.0 -78.0 -73.0 -68.0 -58.0 -56.0 -60.0 -65.0 -73.0 -65.0 -69.0 -69.0 -71.0 -71.0 -71.0 -85.0 -71.0 -79.0 -73.0 -89.0 -88.0 -78.0 -81.0 -75.0 -80.0 -77.0 -74.0 -81.0 -74.0 -73.0 -72.0 -67.0 -71.0 -72.0 -71.0 -75.0 -72.0 -71.0 -72.0 -71.0 -71.0 -74.0 -79.0 -81.0 -74.0 -85.0 -93.0 -81.0 -65.0 -86.0 -81.0 -77.0 -73.0 -75.0 -81.0 -68.0 -71.0 -75.0 -73.0 -76.0 -75.0 -75.0 -76.0 -87.0 -86.0 -74.0 -71.0 -77.0 -73.0 -73.0 -67.0 -71.0 -68.0 -68.0 -69.0 -71.0 -73.0 -70.0 -73.0 -76.0 -73.0 -70.0 -76.0 -82.0 -82.0 -80.0 -80.0 -79.0 -81.0 -80.0 -80.0 -76.0 -82.0 -82.0 -83.0 -84.0 -87.0 -84.0 -85.0 -83.0 -85.0 -84.0 -86.0 -87.0 -84.0 -82.0 -83.0 -83.0 -84.0 -87.0 -86.0 -83.0 -82.0 -82.0 -81.0 -80.0 -82.0 -79.0 -81.0 -80.0 -79.0 -81.0 -80.0 -79.0 -78.0 -80.0 -79.0 -76.0 -76.0 -75.0 -75.0 -76.0 -75.0 -74.0 -73.0 -73.0 -73.0 -72.0 -70.0 -67.0 -66.0 -63.0 -61.0 -62.0 -61.0 -60.0 -59.0 -59.0 -58.0 -57.0 -56.0 -55.0 -54.0 -53.0 -52.0 -52.0 -51.0 -51.0 -51.0 -50.0 -49.0 -49.0 -48.0 -48.0 -47.0 -46.0 -45.0 -44.0 -43.0 -42.0 -42.0 -42.0 -42.0 -42.0 -43.0 -43.0 -44.0 -48.0 -50.0 -49.0 -49.0 -47.0 -46.0 -44.0 -42.0 -40.0 -38.0 -37.0 -35.0 -34.0 -34.0 -34.0 -35.0 -36.0 -38.0 -41.0 -45.0 -45.0 -43.0 -40.0 -42.0 -44.0 -46.0 -47.0 -49.0 -50.0 -52.0 -53.0 -54.0 -54.0 -53.0 -51.0 -50.0 -48.0 -49.0 -48.0 -47.0 -47.0 -47.0 -47.0 -47.0 -46.0 -45.0 -45.0 -44.0 -44.0 -44.0 -44.0 -43.0 -43.0 -42.0 -41.0 -41.0 -41.0 -41.0 -40.0 -39.0 -39.0 -38.0 -37.0 -37.0 -36.0 -35.0 -34.0 -33.0 -32.0 -32.0 -31.0 -30.0 -30.0 -29.0 -28.0 -28.0 -27.0 -26.0 -25.0 -25.0 -26.0 -25.0 -24.0 -23.0 -22.0 -21.0 -19.0 -18.0 -17.0 -15.0 -16.0 -18.0 -19.0 -19.0 -19.0 -19.0 -19.0 -18.0 -18.0 -18.0 -17.0 -17.0 -16.0 -17.0 -16.0 -12.0 -5.0 8.0 8.0 19.0 2.0 15.0 17.0 17.0 31.0 35.0 43.0 26.0 28.0 31.0 30.0 21.0 21.0 17.0 25.0 28.0 33.0 34.0 40.0 47.0 63.0 61.0 64.0 61.0 63.0 70.0 73.0 74.0 55.0 51.0 77.0 15.0 28.0 67.0 76.0 81.0 76.0 65.0 56.0 72.0 48.0 43.0 13.0 -11.0 -13.0 -13.0 -13.0 -13.0 -13.0 -13.0 -15.0 -17.0 -16.0 -9.0
283.0 231.0 235.0 262.0 285.0 260.0 332.0 328.0 466.0 378.0 233.0 275.0 339.0 214.0 315.0 484.0 340.0 274.0 360.0 648.0 414.0 449.0 306.0 243.0 388.0 293.0 262.0 196.0 198.0 262.0 214.0 178.0 196.0 233.0 161.0 147.0 157.0 112.0 77.0 63.0 63.0 80.0 55.0 5.0 40.0 54.0 58.0 38.0 55.0 43.0 -3.0 -22.0 -25.0 -14.0 -28.0 -46.0 -63.0 -65.0 -71.0 -86.0 -80.0 -73.0 -71.0 -65.0 -59.0 -68.0 -68.0 -75.0 -69.0 -70.0 -68.0 -70.0 -74.0 -74.0 -80.0 -88.0 -74.0 -77.0 -89.0 -91.0 -86.0 -84.0 -79.0 -77.0 -82.0 -74.0 -84.0 -72.0 -75.0 -70.0 -69.0 -69.0 -73.0 -72.0 -73.0 -72.0 -72.0 -71.0 -69.0 -69.0 -82.0 -85.0 -79.0 -77.0 -97.0 -85.0 -81.0 -64.0 -88.0 -77.0 -80.0 -72.0 -74.0 -77.0 -68.0 -66.0 -75.0 -76.0 -80.0 -78.0 -80.0 -83.0 -89.0 -78.0 -74.0 -70.0 -77.0 -74.0 -66.0 -72.0 -72.0 -70.0 -69.0 -70.0 -70.0 -71.0 -72.0 -73.0 -75.0 -73.0 -72.0 -83.0 -85.0 -79.0 -79.0 -78.0 -77.0 -81.0 -80.0 -80.0 -79.0 -82.0 -81.0 -83.0 -84.0 -89.0 -90.0 -85.0 -80.0 -82.0 -81.0 -86.0 -85.0 -83.0 -82.0 -82.0 -82.0 -83.0 -85.0 -83.0 -81.0 -82.0 -84.0 -84.0 -81.0 -80.0 -78.0 -79.0 -77.0 -80.0 -80.0 -80.0 -80.0 -78.0 -80.0 -80.0 -75.0 -77.0 -76.0 -75.0 -74.0 -74.0 -73.0 -75.0 -71.0 -71.0 -70.0 -68.0 -66.0 -64.0 -62.0 -61.0 -61.0 -59.0 -59.0 -58.0 -58.0 -57.0 -57.0 -56.0 -55.0 -54.0 -53.0 -52.0 -51.0 -50.0 -50.0 -50.0 -50.0 -50.0 -49.0 -48.0 -47.0 -46.0 -45.0 -44.0 -43.0 -42.0 -42.0 -41.0 -41.0 -41.0 -41.0 -41.0 -42.0 -42.0 -45.0 -47.0 -48.0 -47.0 -46.0 -45.0 -43.0 -42.0 -40.0 -39.0 -38.0 -36.0 -36.0 -36.0 -36.0 -37.0 -38.0 -40.0 -43.0 -45.0 -46.0 -44.0 -42.0 -43.0 -45.0 -46.0 -48.0 -49.0 -50.0 -51.0 -52.0 -53.0 -53.0 -53.0 -51.0 -49.0 -49.0 -48.0 -48.0 -47.0 -47.0 -47.0 -47.0 -47.0 -46.0 -46.0 -45.0 -44.0 -44.0 -44.0 -44.0 -43.0 -42.0 -41.0 -41.0 -41.0 -41.0 -41.0 -40.0 -39.0 -39.0 -38.0 -37.0 -36.0 -35.0 -34.0 -34.0 -33.0 -32.0 -32.0 -31.0 -31.0 -30.0 -30.0 -29.0 -28.0 -28.0 -27.0 -27.0 -26.0 -26.0 -25.0 -24.0 -23.0 -22.0 -21.0 -21.0 -20.0 -18.0 -14.0 -15.0 -17.0 -19.0 -19.0 -19.0 -19.0 -18.0 -17.0 -17.0 -17.0 -16.0 -16.0 -16.0 -17.0 -16.0 -11.0 -3.0 7.0 2.0 2.0 12.0 16.0 21.0 14.0 29.0 34.0 33.0 27.0 20.0 25.0 22.0 9.0 16.0 30.0 28.0 27.0 31.0 32.0 42.0 46.0 67.0 60.0 64.0 73.0 67.0 68.0 72.0 80.0 46.0 33.0 13.0 54.0 61.0 73.0 75.0 77.0 73.0 74.0 54.0 25.0 33.0 40.0 21.0 -9.0 -13.0 -13.0 -12.0 -5.0 -14.0 -14.0 -17.0 -15.0 -14.0 -7.0
210.0 224.0 323.0 273.0 301.0 269.0 252.0 368.0 347.0 326.0 417.0 188.0 229.0 169.0 211.0 254.0 337.0 299.0 557.0 325.0 429.0 491.0 309.0 322.0 354.0 252.0 256.0 218.0 192.0 172.0 227.0 166.0 157.0 162.0 169.0 172.0 123.0 79.0 62.0 52.0 73.0 52.0 35.0 23.0 41.0 72.0 71.0 63.0 33.0 24.0 8.0 -2.0 -15.0 -6.0 -21.0 -32.0 -53.0 -56.0 -68.0 -78.0 -85.0 -74.0 -75.0 -68.0 -64.0 -62.0 -63.0 -75.0 -65.0 -67.0 -61.0 -65.0 -68.0 -72.0 -74.0 -80.0 -82.0 -82.0 -90.0 -82.0 -83.0 -85.0 -83.0 -79.0 -85.0 -80.0 -82.0 -80.0 -73.0 -70.0 -73.0 -70.0 -72.0 -70.0 -72.0 -71.0 -70.0 -70.0 -71.0 -73.0 -78.0 -84.0 -73.0 -75.0 -98.0 -83.0 -75.0 -63.0 -76.0 -72.0 -75.0 -77.0 -74.0 -76.0 -70.0 -71.0 -76.0 -76.0 -83.0 -75.0 -80.0 -82.0 -78.0 -80.0 -74.0 -69.0 -74.0 -72.0 -70.0 -70.0 -70.0 -71.0 -65.0 -70.0 -71.0 -71.0 -76.0 -73.0 -74.0 -73.0 -75.0 -90.0 -82.0 -78.0 -78.0 -78.0 -78.0 -79.0 -79.0 -80.0 -78.0 -81.0 -83.0 -80.0 -83.0 -86.0 -90.0 -86.0 -83.0 -82.0 -84.0 -88.0 -84.0 -83.0 -83.0 -83.0 -82.0 -83.0 -85.0 -83.0 -87.0 -82.0 -83.0 -80.0 -78.0 -79.0 -77.0 -77.0 -79.0 -82.0 -81.0 -81.0 -80.0 -79.0 -79.0 -79.0 -79.0 -78.0 -73.0 -75.0 -75.0 -73.0 -73.0 -72.0 -70.0 -69.0 -67.0 -66.0 -64.0 -62.0 -61.0 -62.0 -59.0 -58.0 -58.0 -57.0 -57.0 -56.0 -56.0 -55.0 -55.0 -54.0 -52.0 -51.0 -50.0 -48.0 -49.0 -49.0 -49.0 -49.0 -49.0 -48.0 -46.0 -43.0 -43.0 -44.0 -43.0 -42.0 -41.0 -41.0 -40.0 -40.0 -40.0 -40.0 -41.0 -42.0 -43.0 -45.0 -46.0 -46.0 -46.0 -45.0 -43.0 -42.0 -40.0 -39.0 -38.0 -37.0 -37.0 -37.0 -38.0 -39.0 -40.0 -42.0 -44.0 -47.0 -47.0 -45.0 -44.0 -45.0 -46.0 -47.0 -48.0 -49.0 -50.0 -51.0 -52.0 -53.0 -53.0 -52.0 -50.0 -49.0 -49.0 -48.0 -48.0 -47.0 -47.0 -47.0 -47.0 -47.0 -47.0 -46.0 -45.0 -45.0 -44.0 -44.0 -43.0 -43.0 -42.0 -42.0 -41.0 -41.0 -41.0 -41.0 -40.0 -40.0 -39.0 -38.0 -37.0 -36.0 -35.0 -34.0 -33.0 -33.0 -32.0 -32.0 -31.0 -31.0 -31.0 -30.0 -30.0 -29.0 -29.0 -28.0 -28.0 -27.0 -26.0 -25.0 -24.0 -23.0 -22.0 -20.0 -21.0 -21.0 -20.0 -16.0 -13.0 -17.0 -18.0 -19.0 -19.0 -18.0 -18.0 -17.0 -18.0 -17.0 -15.0 -15.0 -15.0 -17.0 -16.0 -10.0 -1.0 11.0 0.0 4.0 9.0 18.0 18.0 13.0 30.0 33.0 28.0 19.0 13.0 9.0 18.0 21.0 21.0 21.0 33.0 37.0 33.0 37.0 47.0 46.0 52.0 53.0 57.0 83.0 68.0 67.0 71.0 75.0 68.0 15.0 71.0 65.0 82.0 74.0 76.0 68.0 79.0 72.0 61.0 48.0 34.0 29.0 13.0 0.0 9.0 47.0 -5.0 -18.0 -18.0 -15.0 -11.0 -15.0 -11.0 -6.0
292.0 233.0 235.0 207.0 197.0 201.0 242.0 310.0 467.0 308.0 237.0 320.0 209.0 318.0 195.0 155.0 156.0 253.0 452.0 266.0 468.0 358.0 350.0 270.0 311.0 235.0 232.0 227.0 228.0 212.0 144.0 161.0 137.0 133.0 159.0 146.0 95.0 71.0 66.0 62.0 61.0 44.0 26.0 39.0 56.0 83.0 68.0 60.0 43.0 14.0 7.0 4.0 -3.0 -6.0 -12.0 -23.0 -43.0 -48.0 -59.0 -75.0 -81.0 -82.0 -74.0 -72.0 -70.0 -66.0 -74.0 -75.0 -63.0 -72.0 -73.0 -56.0 -65.0 -64.0 -65.0 -71.0 -84.0 -85.0 -85.0 -84.0 -78.0 -87.0 -90.0 -84.0 -83.0 -79.0 -85.0 -76.0 -71.0 -69.0 -68.0 -69.0 -69.0 -70.0 -71.0 -71.0 -69.0 -69.0 -70.0 -73.0 -80.0 -84.0 -72.0 -78.0 -99.0 -84.0 -69.0 -70.0 -68.0 -70.0 -71.0 -77.0 -73.0 -72.0 -70.0 -69.0 -75.0 -80.0 -81.0 -78.0 -81.0 -83.0 -82.0 -79.0 -72.0 -72.0 -73.0 -72.0 -73.0 -71.0 -67.0 -68.0 -66.0 -70.0 -66.0 -73.0 -73.0 -72.0 -72.0 -70.0 -74.0 -83.0 -80.0 -79.0 -77.0 -78.0 -76.0 -77.0 -78.0 -80.0 -78.0 -77.0 -82.0 -82.0 -82.0 -89.0 -90.0 -87.0 -85.0 -83.0 -80.0 -86.0 -82.0 -83.0 -83.0 -83.0 -83.0 -82.0 -84.0 -84.0 -83.0 -82.0 -82.0 -81.0 -79.0 -80.0 -79.0 -80.0 -82.0 -83.0 -82.0 -81.0 -81.0 -81.0 -77.0 -75.0 -78.0 -75.0 -76.0 -73.0 -74.0 -71.0 -72.0 -71.0 -68.0 -67.0 -66.0 -64.0 -64.0 -62.0 -59.0 -57.0 -56.0 -57.0 -56.0 -56.0 -56.0 -55.0 -54.0 -54.0 -54.0 -53.0 -52.0 -50.0 -49.0 -47.0 -46.0 -46.0 -47.0 -46.0 -46.0 -46.0 -46.0 -43.0 -40.0 -40.0 -39.0 -42.0 -41.0 -40.0 -40.0 -39.0 -39.0 -39.0 -40.0 -41.0 -42.0 -43.0 -45.0 -46.0 -46.0 -44.0 -43.0 -42.0 -40.0 -40.0 -39.0 -38.0 -38.0 -38.0 -39.0 -40.0 -42.0 -44.0 -46.0 -48.0 -49.0 -47.0 -46.0 -46.0 -47.0 -47.0 -48.0 -49.0 -50.0 -51.0 -52.0 -53.0 -53.0 -52.0 -50.0 -49.0 -49.0 -48.0 -48.0 -47.0 -47.0 -47.0 -47.0 -47.0 -47.0 -46.0 -45.0 -45.0 -44.0 -44.0 -43.0 -43.0 -42.0 -42.0 -41.0 -41.0 -41.0 -41.0 -40.0 -39.0 -39.0 -38.0 -37.0 -36.0 -35.0 -34.0 -33.0 -33.0 -32.0 -32.0 -31.0 -31.0 -31.0 -31.0 -31.0 -30.0 -30.0 -29.0 -28.0 -27.0 -25.0 -24.0 -24.0 -23.0 -22.0 -20.0 -20.0 -20.0 -21.0 -17.0 -12.0 -16.0 -17.0 -19.0 -18.0 -17.0 -15.0 -13.0 -13.0 -14.0 -12.0 -14.0 -15.0 -16.0 -15.0 -9.0 0.0 9.0 4.0 -1.0 3.0 8.0 5.0 12.0 23.0 19.0 22.0 15.0 9.0 14.0 13.0 12.0 28.0 21.0 23.0 27.0 39.0 46.0 38.0 40.0 43.0 56.0 60.0 73.0 68.0 71.0 75.0 69.0 65.0 76.0 74.0 74.0 80.0 76.0 84.0 71.0 75.0 59.0 61.0 53.0 23.0 11.0 10.0 29.0 49.0 -5.0 -20.0 -17.0 -16.0 -14.0 -13.0 -12.0 -7.0 -2.0
554.0 237.0 213.0 226.0 311.0 338.0 204.0 196.0 335.0 351.0 217.0 421.0 213.0 202.0 251.0 312.0 147.0 170.0 206.0 133.0 294.0 255.0 352.0 267.0 199.0 276.0 238.0 251.0 177.0 130.0 144.0 173.0 149.0 177.0 182.0 111.0 80.0 66.0 46.0 47.0 30.0 47.0 48.0 56.0 56.0 59.0 95.0 93.0 62.0 38.0 12.0 22.0 -22.0 0.0 9.0 -13.0 -27.0 -48.0 -51.0 -57.0 -66.0 -74.0 -75.0 -76.0 -71.0 -70.0 -73.0 -76.0 -80.0 -74.0 -70.0 -68.0 -67.0 -67.0 -62.0 -67.0 -83.0 -83.0 -81.0 -88.0 -90.0 -84.0 -87.0 -89.0 -77.0 -87.0 -90.0 -72.0 -70.0 -64.0 -64.0 -67.0 -68.0 -67.0 -71.0 -71.0 -69.0 -69.0 -70.0 -73.0 -74.0 -72.0 -70.0 -85.0 -88.0 -76.0 -66.0 -77.0 -67.0 -69.0 -71.0 -75.0 -71.0 -70.0 -70.0 -76.0 -75.0 -78.0 -76.0 -82.0 -80.0 -79.0 -83.0 -75.0 -74.0 -72.0 -70.0 -73.0 -71.0 -71.0 -71.0 -68.0 -69.0 -68.0 -71.0 -75.0 -70.0 -74.0 -73.0 -67.0 -83.0 -79.0 -77.0 -79.0 -78.0 -77.0 -78.0 -76.0 -77.0 -79.0 -78.0 -78.0 -79.0 -80.0 -83.0 -83.0 -79.0 -77.0 -79.0 -78.0 -78.0 -84.0 -82.0 -83.0 -83.0 -83.0 -82.0 -84.0 -84.0 -83.0 -84.0 -82.0 -82.0 -82.0 -81.0 -81.0 -81.0 -81.0 -81.0 -82.0 -82.0 -81.0 -79.0 -80.0 -79.0 -77.0 -75.0 -76.0 -75.0 -73.0 -72.0 -71.0 -71.0 -69.0 -67.0 -64.0 -65.0 -64.0 -60.0 -58.0 -58.0 -58.0 -56.0 -55.0 -55.0 -55.0 -55.0 -55.0 -53.0 -52.0 -52.0 -52.0 -51.0 -48.0 -48.0 -46.0 -45.0 -44.0 -44.0 -43.0 -43.0 -42.0 -41.0 -41.0 -39.0 -39.0 -38.0 -38.0 -38.0 -38.0 -39.0 -38.0 -38.0 -38.0 -39.0 -40.0 -40.0 -41.0 -43.0 -44.0 -46.0 -44.0 -42.0 -41.0 -40.0 -40.0 -39.0 -38.0 -39.0 -39.0 -40.0 -42.0 -43.0 -45.0 -47.0 -49.0 -50.0 -48.0 -48.0 -47.0 -47.0 -48.0 -49.0 -50.0 -51.0 -51.0 -52.0 -53.0 -53.0 -51.0 -49.0 -49.0 -49.0 -48.0 -48.0 -47.0 -46.0 -46.0 -47.0 -47.0 -47.0 -46.0 -46.0 -45.0 -44.0 -44.0 -43.0 -43.0 -42.0 -42.0 -41.0 -41.0 -41.0 -40.0 -40.0 -39.0 -39.0 -38.0 -37.0 -36.0 -35.0 -34.0 -33.0 -32.0 -32.0 -32.0 -31.0 -31.0 -31.0 -31.0 -31.0 -31.0 -31.0 -30.0 -28.0 -26.0 -25.0 -24.0 -23.0 -23.0 -22.0 -19.0 -18.0 -19.0 -20.0 -16.0 -14.0 -15.0 -16.0 -16.0 -17.0 -15.0 -13.0 -10.0 -11.0 -13.0 -14.0 -13.0 -16.0 -15.0 -13.0 -7.0 7.0 4.0 14.0 19.0 12.0 4.0 7.0 16.0 28.0 13.0 22.0 13.0 7.0 12.0 19.0 18.0 33.0 28.0 24.0 34.0 32.0 35.0 42.0 43.0 49.0 70.0 67.0 74.0 74.0 72.0 71.0 69.0 49.0 63.0 49.0 71.0 71.0 63.0 51.0 61.0 82.0 57.0 63.0 48.0 7.0 17.0 20.0 27.0 26.0 -15.0 -19.0 -15.0 -14.0 -14.0 -11.0 -4.0 -3.0 0.0
270.0 203.0 239.0 342.0 329.0 249.0 395.0 272.0 228.0 266.0 401.0 297.0 506.0 533.0 346.0 419.0 250.0 143.0 427.0 373.0 196.0 124.0 167.0 292.0 133.0 285.0 254.0 263.0 140.0 209.0 153.0 143.0 123.0 130.0 116.0 80.0 61.0 48.0 44.0 23.0 32.0 17.0 71.0 80.0 54.0 84.0 136.0 115.0 85.0 53.0 63.0 36.0 -5.0 -45.0 -3.0 -9.0 -12.0 -31.0 -46.0 -34.0 -60.0 -34.0 -53.0 -52.0 -60.0 -73.0 -77.0 -76.0 -78.0 -77.0 -72.0 -71.0 -69.0 -70.0 -66.0 -76.0 -76.0 -81.0 -84.0 -79.0 -85.0 -87.0 -85.0 -75.0 -78.0 -81.0 -84.0 -71.0 -67.0 -64.0 -63.0 -64.0 -61.0 -64.0 -67.0 -69.0 -70.0 -70.0 -70.0 -73.0 -76.0 -76.0 -73.0 -83.0 -75.0 -72.0 -70.0 -77.0 -68.0 -68.0 -70.0 -72.0 -72.0 -70.0 -72.0 -76.0 -72.0 -82.0 -76.0 -80.0 -78.0 -70.0 -87.0 -77.0 -74.0 -69.0 -69.0 -74.0 -74.0 -71.0 -67.0 -65.0 -72.0 -66.0 -71.0 -72.0 -76.0 -74.0 -71.0 -66.0 -81.0 -75.0 -78.0 -76.0 -75.0 -73.0 -78.0 -77.0 -77.0 -78.0 -79.0 -77.0 -78.0 -80.0 -78.0 -78.0 -77.0 -76.0 -75.0 -75.0 -79.0 -79.0 -82.0 -80.0 -83.0 -81.0 -82.0 -82.0 -83.0 -84.0 -85.0 -80.0 -80.0 -81.0 -80.0 -80.0 -82.0 -80.0 -81.0 -80.0 -80.0 -78.0 -79.0 -78.0 -77.0 -76.0 -77.0 -75.0 -74.0 -73.0 -71.0 -70.0 -68.0 -66.0 -64.0 -64.0 -62.0 -60.0 -58.0 -58.0 -56.0 -54.0 -53.0 -52.0 -53.0 -54.0 -54.0 -54.0 -52.0 -52.0 -51.0 -51.0 -48.0 -47.0 -47.0 -44.0 -44.0 -43.0 -41.0 -41.0 -40.0 -40.0 -39.0 -38.0 -38.0 -37.0 -37.0 -37.0 -37.0 -36.0 -38.0 -38.0 -37.0 -37.0 -38.0 -38.0 -39.0 -40.0 -41.0 -42.0 -43.0 -42.0 -41.0 -40.0 -40.0 -39.0 -39.0 -39.0 -39.0 -40.0 -41.0 -43.0 -44.0 -46.0 -48.0 -50.0 -50.0 -49.0 -48.0 -48.0 -48.0 -48.0 -49.0 -50.0 -51.0 -52.0 -53.0 -54.0 -54.0 -51.0 -49.0 -49.0 -49.0 -48.0 -48.0 -46.0 -46.0 -46.0 -47.0 -47.0 -47.0 -47.0 -46.0 -45.0 -44.0 -44.0 -43.0 -43.0 -42.0 -42.0 -41.0 -40.0 -40.0 -39.0 -39.0 -39.0 -38.0 -38.0 -37.0 -36.0 -34.0 -33.0 -33.0 -32.0 -32.0 -32.0 -32.0 -31.0 -31.0 -31.0 -31.0 -31.0 -31.0 -30.0 -28.0 -26.0 -24.0 -23.0 -22.0 -22.0 -21.0 -18.0 -17.0 -17.0 -19.0 -17.0 -16.0 -15.0 -14.0 -15.0 -16.0 -12.0 -11.0 -12.0 -14.0 -14.0 -15.0 -15.0 -15.0 -14.0 -11.0 -6.0 5.0 4.0 11.0 26.0 16.0 13.0 8.0 16.0 15.0 9.0 18.0 1.0 16.0 19.0 22.0 19.0 23.0 26.0 36.0 36.0 34.0 34.0 44.0 43.0 54.0 66.0 75.0 73.0 67.0 70.0 70.0 72.0 67.0 65.0 73.0 57.0 72.0 56.0 56.0 63.0 65.0 64.0 44.0 38.0 2.0 24.0 16.0 25.0 -8.0 -25.0 -19.0 -15.0 -13.0 -13.0 -7.0 -1.0 0.0 3.0
230.0 234.0 422.0 253.0 552.0 387.0 266.0 283.0 340.0 462.0 586.0 276.0 577.0 643.0 528.0 384.0 258.0 275.0 396.0 476.0 453.0 315.0 185.0 376.0 147.0 101.0 114.0 182.0 180.0 170.0 225.0 142.0 146.0 111.0 70.0 46.0 42.0 28.0 39.0 60.0 55.0 29.0 46.0 42.0 45.0 66.0 131.0 117.0 122.0 87.0 144.0 63.0 9.0 -40.0 4.0 -11.0 -11.0 -20.0 -31.0 -41.0 -50.0 -52.0 -48.0 -44.0 -58.0 -76.0 -78.0 -78.0 -74.0 -75.0 -70.0 -70.0 -78.0 -77.0 -77.0 -80.0 -82.0 -84.0 -86.0 -78.0 -86.0 -88.0 -85.0 -83.0 -83.0 -81.0 -77.0 -73.0 -65.0 -64.0 -63.0 -63.0 -62.0 -66.0 -67.0 -68.0 -71.0 -70.0 -70.0 -74.0 -78.0 -77.0 -75.0 -80.0 -77.0 -74.0 -71.0 -75.0 -69.0 -68.0 -69.0 -71.0 -71.0 -71.0 -73.0 -78.0 -72.0 -82.0 -77.0 -86.0 -73.0 -73.0 -83.0 -77.0 -73.0 -75.0 -69.0 -76.0 -72.0 -70.0 -71.0 -70.0 -71.0 -66.0 -72.0 -76.0 -76.0 -71.0 -68.0 -73.0 -75.0 -77.0 -75.0 -77.0 -75.0 -75.0 -75.0 -81.0 -78.0 -78.0 -79.0 -78.0 -76.0 -76.0 -75.0 -74.0 -74.0 -76.0 -76.0 -78.0 -79.0 -78.0 -80.0 -81.0 -79.0 -79.0 -82.0 -81.0 -81.0 -84.0 -84.0 -83.0 -81.0 -81.0 -80.0 -79.0 -81.0 -81.0 -79.0 -80.0 -80.0 -79.0 -80.0 -78.0 -76.0 -77.0 -75.0 -74.0 -74.0 -68.0 -69.0 -68.0 -65.0 -66.0 -64.0 -60.0 -59.0 -59.0 -54.0 -54.0 -55.0 -53.0 -52.0 -51.0 -51.0 -51.0 -52.0 -53.0 -51.0 -50.0 -50.0 -49.0 -47.0 -46.0 -46.0 -44.0 -43.0 -42.0 -40.0 -39.0 -38.0 -38.0 -38.0 -37.0 -37.0 -37.0 -37.0 -36.0 -36.0 -36.0 -36.0 -36.0 -36.0 -36.0 -36.0 -37.0 -37.0 -38.0 -38.0 -39.0 -40.0 -40.0 -40.0 -39.0 -39.0 -39.0 -39.0 -39.0 -40.0 -41.0 -42.0 -43.0 -44.0 -46.0 -48.0 -49.0 -50.0 -49.0 -49.0 -49.0 -49.0 -49.0 -49.0 -50.0 -51.0 -52.0 -53.0 -54.0 -53.0 -50.0 -50.0 -50.0 -49.0 -48.0 -47.0 -46.0 -46.0 -46.0 -46.0 -47.0 -47.0 -47.0 -47.0 -46.0 -45.0 -44.0 -43.0 -43.0 -42.0 -41.0 -41.0 -40.0 -39.0 -39.0 -38.0 -38.0 -38.0 -37.0 -37.0 -35.0 -34.0 -33.0 -33.0 -33.0 -32.0 -32.0 -32.0 -31.0 -31.0 -31.0 -32.0 -32.0 -31.0 -30.0 -28.0 -25.0 -23.0 -22.0 -22.0 -21.0 -19.0 -18.0 -17.0 -18.0 -18.0 -17.0 -16.0 -14.0 -12.0 -14.0 -14.0 -13.0 -17.0 -15.0 -14.0 -15.0 -15.0 -16.0 -15.0 -13.0 -9.0 -4.0 7.0 7.0 18.0 14.0 19.0 14.0 13.0 7.0 4.0 5.0 13.0 21.0 32.0 26.0 16.0 27.0 27.0 31.0 28.0 35.0 29.0 32.0 41.0 49.0 43.0 57.0 62.0 61.0 60.0 70.0 68.0 59.0 70.0 68.0 65.0 64.0 48.0 43.0 57.0 55.0 43.0 62.0 50.0 44.0 27.0 23.0 22.0 0.0 -15.0 0.0 -3.0 -15.0 -13.0 -13.0 -5.0 4.0 10.0 17.0
238.0 302.0 295.0 347.0 574.0 386.0 490.0 204.0 312.0 548.0 582.0 365.0 414.0 682.0 534.0 287.0 229.0 371.0 458.0 454.0 392.0 314.0 182.0 161.0 148.0 209.0 123.0 166.0 112.0 163.0 133.0 163.0 132.0 106.0 70.0 58.0 28.0 81.0 132.0 92.0 73.0 66.0 108.0 130.0 68.0 38.0 72.0 108.0 117.0 108.0 151.0 74.0 23.0 13.0 5.0 -7.0 -17.0 -13.0 -16.0 -2.0 -40.0 -45.0 -48.0 -49.0 -60.0 -73.0 -78.0 -77.0 -74.0 -67.0 -80.0 -71.0 -71.0 -92.0 -81.0 -86.0 -68.0 -82.0 -82.0 -85.0 -88.0 -89.0 -82.0 -85.0 -86.0 -80.0 -75.0 -73.0 -67.0 -65.0 -63.0 -61.0 -61.0 -62.0 -66.0 -67.0 -71.0 -74.0 -72.0 -75.0 -75.0 -76.0 -75.0 -77.0 -71.0 -72.0 -72.0 -72.0 -68.0 -66.0 -69.0 -69.0 -71.0 -67.0 -74.0 -74.0 -72.0 -84.0 -80.0 -85.0 -75.0 -78.0 -78.0 -82.0 -74.0 -73.0 -68.0 -74.0 -70.0 -74.0 -71.0 -70.0 -70.0 -63.0 -75.0 -76.0 -73.0 -70.0 -67.0 -75.0 -75.0 -76.0 -75.0 -75.0 -77.0 -76.0 -73.0 -81.0 -79.0 -76.0 -77.0 -75.0 -75.0 -75.0 -75.0 -76.0 -76.0 -77.0 -75.0 -76.0 -77.0 -80.0 -82.0 -79.0 -79.0 -79.0 -80.0 -81.0 -83.0 -82.0 -82.0 -80.0 -81.0 -82.0 -83.0 -81.0 -80.0 -79.0 -79.0 -80.0 -80.0 -79.0 -78.0 -78.0 -74.0 -75.0 -73.0 -72.0 -71.0 -71.0 -65.0 -68.0 -64.0 -63.0 -61.0 -60.0 -58.0 -54.0 -53.0 -53.0 -51.0 -52.0 -51.0 -50.0 -50.0 -49.0 -49.0 -51.0 -51.0 -50.0 -49.0 -47.0 -46.0 -46.0 -45.0 -43.0 -42.0 -40.0 -40.0 -39.0 -40.0 -39.0 -40.0 -39.0 -39.0 -40.0 -39.0 -37.0 -36.0 -36.0 -35.0 -35.0 -35.0 -35.0 -36.0 -36.0 -36.0 -36.0 -36.0 -36.0 -37.0 -38.0 -38.0 -38.0 -38.0 -38.0 -39.0 -39.0 -40.0 -41.0 -42.0 -43.0 -45.0 -46.0 -47.0 -49.0 -49.0 -49.0 -49.0 -49.0 -49.0 -49.0 -50.0 -50.0 -51.0 -52.0 -53.0 -54.0 -52.0 -50.0 -50.0 -50.0 -49.0 -48.0 -47.0 -46.0 -46.0 -46.0 -46.0 -47.0 -47.0 -47.0 -47.0 -46.0 -45.0 -44.0 -43.0 -42.0 -42.0 -41.0 -40.0 -39.0 -39.0 -38.0 -38.0 -38.0 -37.0 -37.0 -36.0 -35.0 -34.0 -33.0 -33.0 -33.0 -32.0 -32.0 -32.0 -32.0 -31.0 -31.0 -32.0 -32.0 -32.0 -31.0 -29.0 -26.0 -24.0 -24.0 -23.0 -21.0 -18.0 -16.0 -16.0 -16.0 -17.0 -17.0 -15.0 -13.0 -11.0 -11.0 -13.0 -13.0 -17.0 -15.0 -14.0 -15.0 -14.0 -13.0 -12.0 -9.0 -8.0 -2.0 5.0 8.0 8.0 10.0 9.0 4.0 1.0 1.0 2.0 7.0 15.0 24.0 26.0 24.0 28.0 29.0 23.0 31.0 27.0 23.0 26.0 33.0 49.0 58.0 52.0 50.0 75.0 94.0 62.0 74.0 62.0 53.0 55.0 60.0 64.0 73.0 66.0 52.0 47.0 57.0 70.0 54.0 39.0 6.0 27.0 27.0 24.0 -24.0 3.0 44.0 37.0 -13.0 -12.0 -12.0 11.0 19.0 35.0 28.0
427.0 368.0 431.0 324.0 548.0 483.0 310.0 454.0 508.0 581.0 544.0 399.0 604.0 505.0 481.0 465.0 329.0 357.0 435.0 285.0 215.0 404.0 378.0 207.0 121.0 238.0 291.0 266.0 110.0 87.0 84.0 84.0 120.0 51.0 48.0 75.0 83.0 137.0 143.0 125.0 119.0 85.0 178.0 106.0 85.0 39.0 56.0 71.0 117.0 93.0 104.0 142.0 83.0 14.0 3.0 0.0 -6.0 -14.0 -3.0 -30.0 -33.0 -44.0 -48.0 -48.0 -58.0 -71.0 -81.0 -73.0 -72.0 -77.0 -89.0 -90.0 -87.0 -96.0 -75.0 -67.0 -82.0 -82.0 -82.0 -87.0 -90.0 -92.0 -89.0 -84.0 -83.0 -85.0 -84.0 -72.0 -68.0 -64.0 -61.0 -61.0 -63.0 -63.0 -65.0 -68.0 -69.0 -72.0 -73.0 -74.0 -76.0 -77.0 -78.0 -78.0 -72.0 -70.0 -72.0 -71.0 -67.0 -67.0 -67.0 -69.0 -68.0 -70.0 -72.0 -71.0 -79.0 -78.0 -78.0 -78.0 -80.0 -87.0 -75.0 -79.0 -83.0 -69.0 -67.0 -73.0 -72.0 -68.0 -75.0 -75.0 -70.0 -64.0 -77.0 -73.0 -73.0 -70.0 -70.0 -75.0 -78.0 -75.0 -76.0 -76.0 -77.0 -74.0 -75.0 -83.0 -79.0 -79.0 -76.0 -77.0 -77.0 -76.0 -78.0 -76.0 -74.0 -77.0 -76.0 -75.0 -75.0 -77.0 -76.0 -82.0 -80.0 -78.0 -79.0 -80.0 -81.0 -82.0 -83.0 -81.0 -81.0 -82.0 -80.0 -82.0 -80.0 -79.0 -80.0 -80.0 -79.0 -78.0 -77.0 -76.0 -75.0 -72.0 -72.0 -71.0 -68.0 -70.0 -65.0 -64.0 -62.0 -60.0 -59.0 -56.0 -55.0 -51.0 -51.0 -51.0 -48.0 -51.0 -49.0 -48.0 -48.0 -47.0 -47.0 -47.0 -49.0 -49.0 -48.0 -47.0 -45.0 -45.0 -44.0 -42.0 -41.0 -40.0 -40.0 -41.0 -41.0 -41.0 -41.0 -41.0 -41.0 -43.0 -42.0 -39.0 -36.0 -35.0 -35.0 -34.0 -35.0 -34.0 -35.0 -35.0 -35.0 -35.0 -35.0 -34.0 -35.0 -36.0 -36.0 -36.0 -37.0 -38.0 -38.0 -39.0 -40.0 -41.0 -42.0 -43.0 -45.0 -46.0 -47.0 -48.0 -49.0 -49.0 -49.0 -49.0 -49.0 -50.0 -50.0 -51.0 -51.0 -52.0 -53.0 -53.0 -51.0 -51.0 -51.0 -50.0 -49.0 -48.0 -47.0 -47.0 -46.0 -46.0 -47.0 -47.0 -48.0 -48.0 -47.0 -46.0 -45.0 -44.0 -43.0 -42.0 -41.0 -40.0 -39.0 -39.0 -38.0 -38.0 -38.0 -37.0 -37.0 -37.0 -36.0 -35.0 -34.0 -34.0 -33.0 -33.0 -32.0 -32.0 -32.0 -31.0 -31.0 -31.0 -32.0 -33.0 -32.0 -31.0 -29.0 -28.0 -30.0 -29.0 -26.0 -23.0 -19.0 -13.0 -14.0 -15.0 -16.0 -15.0 -13.0 -12.0 -13.0 -13.0 -11.0 -12.0 -19.0 -16.0 -14.0 -15.0 -14.0 -12.0 -10.0 -7.0 -6.0 0.0 14.0 8.0 13.0 6.0 1.0 5.0 0.0 1.0 4.0 6.0 19.0 20.0 25.0 22.0 25.0 23.0 35.0 23.0 31.0 22.0 28.0 34.0 39.0 45.0 58.0 49.0 66.0 77.0 68.0 56.0 50.0 48.0 58.0 73.0 58.0 84.0 63.0 35.0 48.0 44.0 54.0 40.0 7.0 22.0 26.0 16.0 17.0 -23.0 14.0 41.0 11.0 -7.0 -6.0 0.0 11.0 24.0 30.0 27.0
288.0 337.0 512.0 463.0 507.0 350.0 459.0 303.0 445.0 566.0 521.0 540.0 579.0 500.0 347.0 441.0 423.0 337.0 303.0 177.0 386.0 161.0 213.0 113.0 220.0 274.0 189.0 156.0 116.0 82.0 89.0 109.0 93.0 99.0 46.0 101.0 120.0 141.0 168.0 196.0 98.0 192.0 117.0 174.0 158.0 42.0 33.0 38.0 83.0 121.0 83.0 154.0 86.0 42.0 40.0 60.0 25.0 -3.0 -14.0 -26.0 -36.0 -44.0 -48.0 -55.0 -54.0 -73.0 -79.0 -76.0 -90.0 -86.0 -91.0 -95.0 -98.0 -91.0 -89.0 -81.0 -68.0 -67.0 -76.0 -91.0 -87.0 -87.0 -92.0 -88.0 -85.0 -82.0 -79.0 -70.0 -66.0 -67.0 -61.0 -61.0 -66.0 -65.0 -64.0 -64.0 -70.0 -70.0 -73.0 -76.0 -76.0 -78.0 -75.0 -77.0 -71.0 -70.0 -71.0 -71.0 -69.0 -66.0 -64.0 -70.0 -67.0 -71.0 -68.0 -73.0 -78.0 -77.0 -93.0 -76.0 -75.0 -84.0 -77.0 -76.0 -82.0 -68.0 -68.0 -73.0 -71.0 -70.0 -74.0 -72.0 -67.0 -72.0 -74.0 -72.0 -72.0 -66.0 -68.0 -78.0 -75.0 -74.0 -74.0 -80.0 -75.0 -76.0 -81.0 -80.0 -80.0 -74.0 -72.0 -76.0 -79.0 -73.0 -77.0 -74.0 -76.0 -75.0 -74.0 -74.0 -75.0 -75.0 -77.0 -81.0 -80.0 -78.0 -79.0 -81.0 -81.0 -81.0 -81.0 -82.0 -82.0 -82.0 -81.0 -81.0 -78.0 -80.0 -76.0 -77.0 -77.0 -76.0 -74.0 -75.0 -72.0 -72.0 -68.0 -66.0 -67.0 -63.0 -63.0 -61.0 -61.0 -56.0 -55.0 -56.0 -53.0 -51.0 -49.0 -50.0 -48.0 -48.0 -48.0 -46.0 -47.0 -46.0 -45.0 -46.0 -46.0 -47.0 -47.0 -47.0 -44.0 -43.0 -43.0 -41.0 -41.0 -40.0 -40.0 -40.0 -41.0 -41.0 -40.0 -40.0 -40.0 -41.0 -40.0 -40.0 -37.0 -36.0 -35.0 -34.0 -34.0 -34.0 -32.0 -35.0 -35.0 -35.0 -35.0 -34.0 -34.0 -34.0 -34.0 -34.0 -35.0 -37.0 -38.0 -39.0 -40.0 -41.0 -42.0 -43.0 -44.0 -45.0 -46.0 -47.0 -48.0 -49.0 -49.0 -49.0 -49.0 -50.0 -50.0 -51.0 -51.0 -52.0 -52.0 -53.0 -51.0 -51.0 -51.0 -50.0 -49.0 -48.0 -48.0 -47.0 -47.0 -47.0 -47.0 -47.0 -48.0 -48.0 -47.0 -46.0 -45.0 -44.0 -43.0 -42.0 -41.0 -40.0 -39.0 -38.0 -38.0 -37.0 -37.0 -37.0 -37.0 -36.0 -36.0 -35.0 -34.0 -34.0 -33.0 -33.0 -32.0 -32.0 -31.0 -31.0 -31.0 -31.0 -31.0 -31.0 -31.0 -30.0 -29.0 -28.0 -29.0 -31.0 -30.0 -26.0 -20.0 -14.0 -13.0 -13.0 -14.0 -13.0 -11.0 -11.0 -13.0 -13.0 -11.0 -12.0 -18.0 -16.0 -13.0 -12.0 -12.0 -10.0 -9.0 -5.0 -5.0 8.0 6.0 8.0 9.0 8.0 0.0 0.0 7.0 12.0 13.0 15.0 11.0 19.0 25.0 15.0 19.0 30.0 24.0 19.0 18.0 21.0 24.0 25.0 35.0 47.0 74.0 56.0 56.0 72.0 66.0 48.0 52.0 45.0 51.0 48.0 55.0 46.0 59.0 47.0 47.0 53.0 56.0 17.0 10.0 -1.0 29.0 -14.0 18.0 -19.0 26.0 9.0 10.0 28.0 45.0 4.0 17.0 20.0 19.0 25.0
413.0 431.0 370.0 456.0 468.0 411.0 245.0 334.0 563.0 757.0 599.0 526.0 495.0 503.0 357.0 471.0 409.0 290.0 334.0 407.0 356.0 159.0 130.0 187.0 281.0 247.0 201.0 142.0 143.0 130.0 113.0 157.0 98.0 105.0 90.0 154.0 136.0 189.0 142.0 209.0 98.0 240.0 287.0 101.0 52.0 41.0 43.0 35.0 173.0 118.0 73.0 187.0 122.0 64.0 30.0 46.0 43.0 12.0 -8.0 -27.0 -35.0 -37.0 -49.0 -51.0 -57.0 -73.0 -73.0 -84.0 -95.0 -93.0 -89.0 -95.0 -76.0 -88.0 -90.0 -87.0 -90.0 -87.0 -79.0 -89.0 -94.0 -95.0 -90.0 -91.0 -80.0 -86.0 -81.0 -69.0 -68.0 -63.0 -62.0 -60.0 -65.0 -64.0 -65.0 -68.0 -67.0 -69.0 -73.0 -72.0 -76.0 -78.0 -77.0 -78.0 -74.0 -70.0 -70.0 -66.0 -66.0 -65.0 -66.0 -68.0 -64.0 -66.0 -69.0 -72.0 -75.0 -75.0 -80.0 -77.0 -74.0 -79.0 -80.0 -77.0 -77.0 -67.0 -68.0 -70.0 -74.0 -76.0 -69.0 -72.0 -69.0 -77.0 -72.0 -74.0 -69.0 -69.0 -70.0 -79.0 -76.0 -73.0 -74.0 -73.0 -74.0 -78.0 -82.0 -79.0 -80.0 -76.0 -74.0 -74.0 -73.0 -71.0 -72.0 -75.0 -75.0 -74.0 -74.0 -71.0 -77.0 -75.0 -74.0 -75.0 -79.0 -80.0 -79.0 -81.0 -79.0 -81.0 -80.0 -81.0 -80.0 -81.0 -82.0 -81.0 -75.0 -78.0 -76.0 -76.0 -75.0 -76.0 -71.0 -72.0 -71.0 -67.0 -67.0 -62.0 -64.0 -62.0 -58.0 -58.0 -57.0 -56.0 -54.0 -52.0 -49.0 -48.0 -48.0 -47.0 -46.0 -47.0 -46.0 -45.0 -45.0 -45.0 -45.0 -46.0 -45.0 -45.0 -46.0 -46.0 -43.0 -41.0 -42.0 -41.0 -41.0 -40.0 -39.0 -40.0 -41.0 -40.0 -39.0 -39.0 -39.0 -39.0 -39.0 -39.0 -38.0 -36.0 -36.0 -35.0 -34.0 -34.0 -34.0 -35.0 -34.0 -35.0 -35.0 -34.0 -34.0 -33.0 -32.0 -32.0 -33.0 -35.0 -38.0 -39.0 -40.0 -41.0 -42.0 -43.0 -44.0 -45.0 -46.0 -47.0 -48.0 -48.0 -49.0 -49.0 -49.0 -50.0 -50.0 -51.0 -51.0 -52.0 -52.0 -52.0 -51.0 -51.0 -50.0 -50.0 -49.0 -49.0 -48.0 -48.0 -48.0 -48.0 -48.0 -48.0 -48.0 -48.0 -47.0 -46.0 -45.0 -44.0 -43.0 -42.0 -41.0 -40.0 -39.0 -38.0 -37.0 -37.0 -37.0 -37.0 -37.0 -37.0 -36.0 -35.0 -34.0 -34.0 -33.0 -33.0 -32.0 -32.0 -31.0 -31.0 -31.0 -31.0 -31.0 -30.0 -30.0 -29.0 -29.0 -28.0 -29.0 -32.0 -32.0 -28.0 -24.0 -19.0 -11.0 -11.0 -12.0 -12.0 -10.0 -11.0 -12.0 -13.0 -12.0 -14.0 -20.0 -13.0 -9.0 -8.0 -10.0 -8.0 -8.0 -4.0 -4.0 10.0 8.0 10.0 14.0 1.0 -1.0 23.0 14.0 9.0 18.0 21.0 23.0 14.0 12.0 23.0 25.0 35.0 26.0 18.0 14.0 20.0 26.0 25.0 26.0 37.0 66.0 49.0 51.0 53.0 70.0 71.0 44.0 46.0 52.0 60.0 47.0 54.0 37.0 40.0 51.0 54.0 44.0 42.0 29.0 -7.0 -15.0 -16.0 8.0 2.0 23.0 15.0 13.0 23.0 42.0 9.0 14.0 15.0 24.0 33.0
282.0 370.0 466.0 517.0 401.0 272.0 310.0 459.0 834.0 617.0 392.0 404.0 437.0 408.0 244.0 235.0 375.0 297.0 362.0 312.0 205.0 248.0 213.0 248.0 259.0 216.0 148.0 126.0 118.0 128.0 143.0 152.0 170.0 99.0 49.0 137.0 115.0 123.0 158.0 109.0 198.0 341.0 241.0 221.0 227.0 256.0 66.0 40.0 39.0 47.0 48.0 101.0 149.0 128.0 71.0 48.0 37.0 20.0 0.0 -23.0 -30.0 -38.0 -45.0 -51.0 -62.0 -63.0 -63.0 -73.0 -73.0 -70.0 -84.0 -70.0 -97.0 -99.0 -99.0 -100.0 -90.0 -88.0 -86.0 -86.0 -93.0 -96.0 -91.0 -90.0 -81.0 -81.0 -81.0 -70.0 -72.0 -67.0 -65.0 -62.0 -64.0 -66.0 -67.0 -68.0 -68.0 -68.0 -70.0 -73.0 -72.0 -74.0 -78.0 -77.0 -77.0 -73.0 -69.0 -68.0 -65.0 -65.0 -65.0 -66.0 -62.0 -70.0 -70.0 -71.0 -74.0 -80.0 -82.0 -80.0 -73.0 -75.0 -88.0 -77.0 -72.0 -70.0 -64.0 -75.0 -74.0 -70.0 -72.0 -72.0 -69.0 -71.0 -72.0 -74.0 -71.0 -64.0 -73.0 -73.0 -76.0 -75.0 -73.0 -73.0 -71.0 -80.0 -83.0 -79.0 -74.0 -72.0 -71.0 -71.0 -73.0 -73.0 -71.0 -74.0 -75.0 -74.0 -73.0 -71.0 -74.0 -71.0 -73.0 -74.0 -84.0 -80.0 -80.0 -82.0 -79.0 -81.0 -82.0 -78.0 -81.0 -81.0 -80.0 -77.0 -77.0 -76.0 -76.0 -74.0 -74.0 -74.0 -70.0 -69.0 -67.0 -64.0 -64.0 -63.0 -62.0 -59.0 -57.0 -55.0 -52.0 -52.0 -49.0 -50.0 -49.0 -46.0 -47.0 -45.0 -44.0 -47.0 -45.0 -44.0 -43.0 -45.0 -44.0 -44.0 -44.0 -44.0 -45.0 -45.0 -41.0 -40.0 -41.0 -40.0 -40.0 -39.0 -39.0 -39.0 -40.0 -39.0 -38.0 -38.0 -38.0 -37.0 -37.0 -37.0 -38.0 -36.0 -36.0 -35.0 -34.0 -34.0 -34.0 -33.0 -34.0 -34.0 -35.0 -34.0 -34.0 -33.0 -31.0 -30.0 -29.0 -33.0 -36.0 -38.0 -39.0 -40.0 -41.0 -42.0 -43.0 -44.0 -45.0 -46.0 -47.0 -48.0 -48.0 -49.0 -49.0 -50.0 -50.0 -51.0 -51.0 -52.0 -52.0 -52.0 -52.0 -51.0 -50.0 -50.0 -49.0 -49.0 -49.0 -48.0 -48.0 -48.0 -48.0 -48.0 -48.0 -48.0 -47.0 -46.0 -45.0 -44.0 -42.0 -41.0 -40.0 -39.0 -38.0 -37.0 -37.0 -37.0 -37.0 -37.0 -37.0 -37.0 -36.0 -35.0 -35.0 -34.0 -33.0 -33.0 -32.0 -31.0 -31.0 -30.0 -30.0 -30.0 -30.0 -30.0 -29.0 -29.0 -29.0 -28.0 -27.0 -31.0 -34.0 -31.0 -28.0 -24.0 -15.0 -8.0 -9.0 -11.0 -10.0 -10.0 -11.0 -9.0 -10.0 -13.0 -20.0 -22.0 -8.0 -9.0 -7.0 -6.0 -7.0 -5.0 -2.0 6.0 9.0 7.0 7.0 1.0 -1.0 -1.0 26.0 23.0 19.0 20.0 27.0 18.0 21.0 30.0 29.0 43.0 13.0 15.0 13.0 24.0 25.0 33.0 28.0 34.0 49.0 38.0 42.0 39.0 46.0 49.0 40.0 49.0 42.0 44.0 38.0 16.0 62.0 36.0 38.0 7.0 2.0 18.0 35.0 29.0 38.0 -31.0 20.0 -13.0 14.0 15.0 15.0 28.0 29.0 29.0 14.0 24.0 31.0 36.0
377.0 338.0 487.0 526.0 380.0 405.0 431.0 474.0 678.0 494.0 334.0 369.0 454.0 298.0 424.0 387.0 437.0 386.0 335.0 220.0 233.0 330.0 301.0 260.0 202.0 155.0 169.0 138.0 134.0 118.0 87.0 107.0 60.0 49.0 62.0 90.0 72.0 88.0 252.0 138.0 199.0 343.0 264.0 439.0 339.0 276.0 268.0 111.0 149.0 78.0 62.0 84.0 168.0 121.0 68.0 36.0 29.0 13.0 9.0 -19.0 -27.0 -41.0 -40.0 -64.0 -69.0 -64.0 -71.0 -74.0 -72.0 -66.0 -69.0 -90.0 -89.0 -104.0 -109.0 -101.0 -90.0 -91.0 -84.0 -86.0 -88.0 -94.0 -92.0 -90.0 -81.0 -77.0 -75.0 -70.0 -72.0 -63.0 -65.0 -61.0 -62.0 -64.0 -66.0 -71.0 -66.0 -69.0 -70.0 -72.0 -71.0 -72.0 -74.0 -78.0 -81.0 -73.0 -71.0 -71.0 -66.0 -65.0 -63.0 -65.0 -58.0 -70.0 -69.0 -73.0 -73.0 -79.0 -84.0 -81.0 -79.0 -77.0 -85.0 -79.0 -70.0 -67.0 -65.0 -81.0 -75.0 -75.0 -76.0 -72.0 -72.0 -78.0 -75.0 -74.0 -70.0 -66.0 -78.0 -76.0 -77.0 -74.0 -77.0 -70.0 -79.0 -80.0 -80.0 -78.0 -70.0 -68.0 -70.0 -72.0 -74.0 -73.0 -71.0 -70.0 -73.0 -74.0 -71.0 -71.0 -70.0 -73.0 -76.0 -80.0 -81.0 -79.0 -79.0 -78.0 -79.0 -79.0 -81.0 -81.0 -80.0 -79.0 -79.0 -77.0 -75.0 -74.0 -74.0 -75.0 -72.0 -70.0 -69.0 -67.0 -65.0 -63.0 -62.0 -58.0 -58.0 -56.0 -55.0 -52.0 -50.0 -49.0 -48.0 -50.0 -47.0 -45.0 -45.0 -45.0 -45.0 -44.0 -44.0 -43.0 -43.0 -43.0 -44.0 -43.0 -44.0 -43.0 -42.0 -41.0 -39.0 -39.0 -40.0 -39.0 -40.0 -38.0 -38.0 -38.0 -39.0 -38.0 -37.0 -36.0 -36.0 -36.0 -36.0 -36.0 -37.0 -36.0 -35.0 -35.0 -34.0 -34.0 -34.0 -34.0 -34.0 -33.0 -34.0 -34.0 -34.0 -33.0 -32.0 -31.0 -30.0 -32.0 -34.0 -36.0 -38.0 -39.0 -40.0 -42.0 -43.0 -44.0 -45.0 -46.0 -46.0 -47.0 -48.0 -49.0 -49.0 -50.0 -50.0 -51.0 -51.0 -52.0 -52.0 -51.0 -52.0 -51.0 -50.0 -50.0 -49.0 -49.0 -49.0 -49.0 -49.0 -49.0 -49.0 -49.0 -48.0 -47.0 -46.0 -45.0 -44.0 -43.0 -42.0 -41.0 -40.0 -39.0 -38.0 -37.0 -37.0 -37.0 -37.0 -37.0 -37.0 -37.0 -36.0 -36.0 -35.0 -34.0 -33.0 -32.0 -31.0 -31.0 -30.0 -30.0 -29.0 -30.0 -30.0 -29.0 -29.0 -29.0 -29.0 -28.0 -26.0 -29.0 -34.0 -32.0 -29.0 -26.0 -21.0 -10.0 -6.0 -8.0 -9.0 -8.0 -6.0 -3.0 -4.0 -9.0 -16.0 -26.0 -16.0 -9.0 -10.0 -4.0 -3.0 -4.0 -1.0 -2.0 -3.0 0.0 1.0 8.0 -1.0 0.0 -1.0 12.0 8.0 15.0 27.0 21.0 24.0 35.0 27.0 11.0 10.0 7.0 13.0 19.0 22.0 34.0 33.0 39.0 56.0 41.0 41.0 42.0 55.0 45.0 36.0 34.0 29.0 43.0 44.0 55.0 75.0 67.0 38.0 46.0 41.0 11.0 31.0 29.0 13.0 10.0 -12.0 7.0 -9.0 7.0 14.0 22.0 20.0 28.0 16.0 31.0 37.0 48.0
430.0 405.0 495.0 445.0 393.0 399.0 499.0 574.0 439.0 567.0 527.0 504.0 319.0 486.0 335.0 437.0 281.0 244.0 199.0 237.0 352.0 310.0 257.0 190.0 233.0 214.0 192.0 158.0 194.0 128.0 57.0 106.0 84.0 102.0 158.0 125.0 104.0 149.0 275.0 288.0 275.0 303.0 338.0 409.0 443.0 270.0 319.0 108.0 130.0 90.0 74.0 211.0 211.0 194.0 105.0 57.0 32.0 21.0 7.0 -11.0 -26.0 -37.0 -51.0 -60.0 -57.0 -77.0 -68.0 -68.0 -65.0 -69.0 -82.0 -94.0 -87.0 -106.0 -106.0 -98.0 -94.0 -89.0 -87.0 -88.0 -89.0 -91.0 -94.0 -93.0 -91.0 -76.0 -71.0 -69.0 -68.0 -65.0 -64.0 -62.0 -62.0 -63.0 -63.0 -67.0 -66.0 -67.0 -68.0 -72.0 -77.0 -73.0 -78.0 -79.0 -82.0 -75.0 -74.0 -73.0 -72.0 -69.0 -64.0 -64.0 -61.0 -66.0 -71.0 -73.0 -72.0 -74.0 -71.0 -76.0 -75.0 -80.0 -76.0 -78.0 -70.0 -70.0 -75.0 -75.0 -74.0 -75.0 -75.0 -74.0 -78.0 -81.0 -71.0 -75.0 -70.0 -66.0 -74.0 -77.0 -71.0 -75.0 -76.0 -73.0 -77.0 -73.0 -76.0 -72.0 -69.0 -68.0 -71.0 -74.0 -75.0 -70.0 -67.0 -72.0 -75.0 -74.0 -69.0 -69.0 -70.0 -75.0 -76.0 -80.0 -80.0 -78.0 -79.0 -78.0 -79.0 -81.0 -79.0 -79.0 -78.0 -77.0 -77.0 -75.0 -74.0 -74.0 -73.0 -70.0 -69.0 -68.0 -67.0 -63.0 -63.0 -61.0 -58.0 -56.0 -53.0 -54.0 -51.0 -49.0 -47.0 -47.0 -46.0 -47.0 -47.0 -44.0 -44.0 -43.0 -43.0 -45.0 -44.0 -42.0 -42.0 -42.0 -43.0 -43.0 -43.0 -42.0 -41.0 -40.0 -38.0 -38.0 -39.0 -39.0 -39.0 -38.0 -37.0 -38.0 -38.0 -37.0 -36.0 -36.0 -35.0 -35.0 -35.0 -36.0 -36.0 -37.0 -35.0 -34.0 -33.0 -34.0 -34.0 -34.0 -33.0 -36.0 -33.0 -34.0 -34.0 -33.0 -32.0 -32.0 -31.0 -32.0 -34.0 -35.0 -37.0 -39.0 -40.0 -41.0 -42.0 -43.0 -44.0 -45.0 -46.0 -47.0 -48.0 -48.0 -49.0 -50.0 -51.0 -51.0 -51.0 -52.0 -52.0 -52.0 -52.0 -51.0 -50.0 -50.0 -49.0 -49.0 -49.0 -49.0 -49.0 -49.0 -49.0 -49.0 -48.0 -47.0 -46.0 -45.0 -44.0 -43.0 -42.0 -41.0 -40.0 -39.0 -38.0 -37.0 -36.0 -37.0 -37.0 -37.0 -38.0 -37.0 -37.0 -36.0 -35.0 -34.0 -33.0 -32.0 -31.0 -30.0 -29.0 -29.0 -29.0 -29.0 -29.0 -28.0 -29.0 -29.0 -29.0 -28.0 -26.0 -28.0 -32.0 -32.0 -30.0 -28.0 -25.0 -18.0 -7.0 -4.0 -4.0 -5.0 -7.0 -8.0 -7.0 -4.0 -6.0 -9.0 -25.0 -18.0 -13.0 -4.0 -4.0 -2.0 -2.0 -4.0 -4.0 -3.0 -2.0 3.0 0.0 0.0 0.0 0.0 8.0 12.0 24.0 27.0 22.0 23.0 10.0 8.0 12.0 10.0 14.0 19.0 25.0 29.0 31.0 41.0 50.0 59.0 61.0 57.0 58.0 53.0 38.0 29.0 37.0 43.0 40.0 45.0 55.0 59.0 72.0 58.0 36.0 54.0 25.0 21.0 0.0 11.0 -18.0 -12.0 6.0 -1.0 4.0 23.0 25.0 28.0 14.0 33.0 45.0 76.0
343.0 453.0 467.0 430.0 378.0 401.0 318.0 644.0 768.0 657.0 567.0 435.0 323.0 463.0 461.0 302.0 218.0 333.0 308.0 343.0 312.0 276.0 204.0 266.0 299.0 242.0 152.0 223.0 162.0 80.0 161.0 163.0 166.0 123.0 160.0 133.0 149.0 219.0 319.0 187.0 336.0 470.0 250.0 345.0 426.0 390.0 204.0 175.0 102.0 74.0 84.0 260.0 206.0 185.0 130.0 87.0 46.0 28.0 6.0 -16.0 -26.0 -33.0 -41.0 -58.0 -65.0 -70.0 -65.0 -67.0 -60.0 -78.0 -81.0 -92.0 -99.0 -102.0 -106.0 -102.0 -99.0 -98.0 -93.0 -93.0 -90.0 -89.0 -92.0 -94.0 -93.0 -83.0 -77.0 -68.0 -66.0 -65.0 -63.0 -59.0 -63.0 -63.0 -64.0 -65.0 -66.0 -65.0 -66.0 -69.0 -71.0 -77.0 -76.0 -79.0 -84.0 -76.0 -80.0 -78.0 -76.0 -73.0 -73.0 -64.0 -63.0 -69.0 -70.0 -71.0 -77.0 -72.0 -72.0 -74.0 -72.0 -82.0 -86.0 -75.0 -72.0 -69.0 -81.0 -81.0 -73.0 -74.0 -79.0 -74.0 -79.0 -75.0 -74.0 -74.0 -68.0 -77.0 -84.0 -78.0 -70.0 -75.0 -72.0 -73.0 -73.0 -72.0 -73.0 -71.0 -72.0 -68.0 -73.0 -74.0 -73.0 -66.0 -70.0 -72.0 -75.0 -69.0 -67.0 -71.0 -75.0 -77.0 -73.0 -76.0 -80.0 -79.0 -79.0 -81.0 -80.0 -78.0 -78.0 -77.0 -77.0 -75.0 -75.0 -74.0 -72.0 -70.0 -67.0 -66.0 -67.0 -66.0 -64.0 -61.0 -60.0 -57.0 -54.0 -54.0 -52.0 -49.0 -49.0 -46.0 -47.0 -46.0 -45.0 -46.0 -45.0 -43.0 -42.0 -44.0 -43.0 -43.0 -43.0 -42.0 -41.0 -42.0 -43.0 -43.0 -43.0 -41.0 -40.0 -38.0 -37.0 -37.0 -38.0 -38.0 -38.0 -38.0 -37.0 -37.0 -37.0 -36.0 -35.0 -35.0 -34.0 -34.0 -34.0 -35.0 -35.0 -36.0 -34.0 -33.0 -33.0 -33.0 -33.0 -33.0 -33.0 -33.0 -34.0 -34.0 -34.0 -34.0 -33.0 -33.0 -32.0 -33.0 -33.0 -34.0 -36.0 -38.0 -40.0 -41.0 -42.0 -43.0 -44.0 -45.0 -45.0 -46.0 -47.0 -48.0 -48.0 -49.0 -51.0 -51.0 -52.0 -52.0 -52.0 -52.0 -52.0 -51.0 -50.0 -50.0 -49.0 -49.0 -49.0 -50.0 -50.0 -50.0 -49.0 -49.0 -48.0 -47.0 -46.0 -45.0 -44.0 -43.0 -42.0 -41.0 -40.0 -39.0 -38.0 -37.0 -37.0 -37.0 -37.0 -37.0 -38.0 -38.0 -37.0 -36.0 -35.0 -34.0 -32.0 -31.0 -30.0 -29.0 -29.0 -28.0 -28.0 -28.0 -27.0 -28.0 -29.0 -29.0 -29.0 -28.0 -26.0 -27.0 -31.0 -32.0 -30.0 -29.0 -26.0 -23.0 -20.0 -18.0 -16.0 -13.0 -12.0 -12.0 -11.0 -9.0 -7.0 -7.0 -7.0 -7.0 -18.0 -21.0 -10.0 -5.0 -7.0 -7.0 -6.0 -5.0 -5.0 -3.0 0.0 0.0 0.0 -12.0 0.0 3.0 17.0 29.0 13.0 13.0 18.0 10.0 9.0 7.0 11.0 18.0 24.0 25.0 30.0 45.0 51.0 58.0 43.0 50.0 45.0 53.0 34.0 29.0 35.0 38.0 35.0 41.0 46.0 57.0 52.0 51.0 53.0 51.0 33.0 20.0 7.0 -5.0 -12.0 -30.0 -11.0 -12.0 -1.0 20.0 37.0 26.0 28.0 43.0 69.0 67.0
434.0 334.0 361.0 423.0 445.0 508.0 493.0 585.0 756.0 511.0 442.0 463.0 517.0 506.0 311.0 230.0 441.0 410.0 301.0 368.0 342.0 254.0 286.0 301.0 265.0 186.0 126.0 87.0 97.0 161.0 253.0 107.0 183.0 102.0 209.0 237.0 272.0 131.0 231.0 252.0 387.0 356.0 474.0 651.0 531.0 263.0 387.0 225.0 145.0 73.0 66.0 248.0 246.0 171.0 159.0 100.0 56.0 41.0 26.0 -9.0 -25.0 -34.0 -38.0 -47.0 -63.0 -66.0 -66.0 -58.0 -71.0 -74.0 -79.0 -91.0 -94.0 -99.0 -105.0 -92.0 -96.0 -101.0 -100.0 -94.0 -92.0 -89.0 -92.0 -93.0 -92.0 -88.0 -76.0 -73.0 -68.0 -65.0 -60.0 -61.0 -63.0 -63.0 -64.0 -64.0 -65.0 -66.0 -67.0 -70.0 -70.0 -71.0 -77.0 -81.0 -80.0 -82.0 -81.0 -80.0 -77.0 -67.0 -75.0 -66.0 -62.0 -67.0 -69.0 -75.0 -75.0 -74.0 -73.0 -74.0 -74.0 -79.0 -83.0 -73.0 -74.0 -78.0 -80.0 -77.0 -77.0 -77.0 -81.0 -75.0 -78.0 -76.0 -78.0 -74.0 -66.0 -76.0 -81.0 -69.0 -73.0 -76.0 -65.0 -78.0 -72.0 -71.0 -76.0 -74.0 -68.0 -70.0 -75.0 -74.0 -66.0 -68.0 -77.0 -71.0 -69.0 -64.0 -71.0 -75.0 -77.0 -71.0 -72.0 -78.0 -85.0 -80.0 -79.0 -76.0 -77.0 -76.0 -76.0 -75.0 -74.0 -75.0 -73.0 -70.0 -68.0 -68.0 -64.0 -65.0 -63.0 -61.0 -60.0 -56.0 -56.0 -55.0 -50.0 -50.0 -49.0 -48.0 -48.0 -48.0 -47.0 -46.0 -45.0 -44.0 -44.0 -42.0 -40.0 -43.0 -42.0 -43.0 -43.0 -42.0 -42.0 -42.0 -42.0 -43.0 -43.0 -40.0 -39.0 -37.0 -36.0 -36.0 -37.0 -36.0 -37.0 -37.0 -36.0 -36.0 -36.0 -36.0 -35.0 -35.0 -34.0 -33.0 -33.0 -34.0 -34.0 -35.0 -35.0 -33.0 -32.0 -32.0 -33.0 -33.0 -33.0 -33.0 -33.0 -34.0 -34.0 -34.0 -34.0 -33.0 -33.0 -33.0 -34.0 -34.0 -36.0 -38.0 -40.0 -41.0 -42.0 -43.0 -44.0 -45.0 -45.0 -46.0 -46.0 -47.0 -48.0 -50.0 -52.0 -52.0 -52.0 -51.0 -51.0 -52.0 -54.0 -51.0 -51.0 -50.0 -49.0 -48.0 -50.0 -50.0 -50.0 -50.0 -49.0 -48.0 -47.0 -46.0 -46.0 -45.0 -43.0 -42.0 -41.0 -41.0 -40.0 -39.0 -38.0 -38.0 -38.0 -37.0 -37.0 -37.0 -37.0 -37.0 -36.0 -35.0 -34.0 -33.0 -32.0 -31.0 -30.0 -29.0 -28.0 -27.0 -27.0 -27.0 -27.0 -27.0 -28.0 -29.0 -29.0 -28.0 -27.0 -26.0 -28.0 -30.0 -29.0 -29.0 -29.0 -25.0 -23.0 -21.0 -20.0 -18.0 -16.0 -15.0 -13.0 -9.0 -9.0 -10.0 -8.0 -5.0 -13.0 -15.0 -11.0 -16.0 -15.0 -11.0 -7.0 -6.0 -6.0 -5.0 -3.0 4.0 0.0 -12.0 0.0 3.0 19.0 18.0 5.0 3.0 12.0 2.0 8.0 14.0 13.0 11.0 19.0 19.0 38.0 37.0 53.0 50.0 25.0 29.0 42.0 29.0 26.0 30.0 29.0 36.0 33.0 37.0 47.0 58.0 56.0 54.0 56.0 47.0 48.0 17.0 -8.0 -9.0 -14.0 -21.0 -17.0 -4.0 5.0 12.0 45.0 24.0 43.0 54.0 57.0 55.0
423.0 334.0 377.0 416.0 399.0 530.0 766.0 607.0 526.0 400.0 521.0 460.0 422.0 410.0 238.0 366.0 374.0 315.0 343.0 329.0 304.0 330.0 295.0 248.0 240.0 170.0 114.0 122.0 176.0 185.0 209.0 106.0 199.0 180.0 177.0 279.0 290.0 153.0 280.0 220.0 246.0 379.0 636.0 746.0 487.0 442.0 317.0 215.0 168.0 85.0 71.0 148.0 173.0 172.0 135.0 99.0 87.0 57.0 37.0 0.0 -24.0 -33.0 -37.0 -42.0 -59.0 -64.0 -68.0 -59.0 -75.0 -69.0 -83.0 -88.0 -98.0 -103.0 -98.0 -93.0 -96.0 -100.0 -96.0 -87.0 -93.0 -91.0 -92.0 -93.0 -93.0 -89.0 -79.0 -72.0 -70.0 -67.0 -64.0 -62.0 -61.0 -61.0 -62.0 -64.0 -64.0 -65.0 -68.0 -72.0 -71.0 -70.0 -75.0 -78.0 -75.0 -84.0 -84.0 -81.0 -78.0 -68.0 -82.0 -69.0 -62.0 -68.0 -67.0 -73.0 -71.0 -72.0 -75.0 -75.0 -77.0 -77.0 -79.0 -75.0 -76.0 -80.0 -79.0 -76.0 -79.0 -79.0 -78.0 -76.0 -73.0 -78.0 -75.0 -67.0 -71.0 -80.0 -75.0 -63.0 -81.0 -70.0 -66.0 -74.0 -69.0 -77.0 -74.0 -67.0 -67.0 -76.0 -75.0 -72.0 -61.0 -74.0 -76.0 -72.0 -61.0 -70.0 -75.0 -77.0 -69.0 -70.0 -81.0 -84.0 -84.0 -78.0 -76.0 -77.0 -76.0 -75.0 -73.0 -74.0 -73.0 -69.0 -69.0 -67.0 -66.0 -65.0 -64.0 -62.0 -60.0 -58.0 -56.0 -55.0 -52.0 -51.0 -49.0 -48.0 -48.0 -47.0 -46.0 -46.0 -42.0 -45.0 -44.0 -44.0 -42.0 -41.0 -39.0 -40.0 -41.0 -42.0 -43.0 -41.0 -41.0 -41.0 -41.0 -41.0 -40.0 -39.0 -38.0 -37.0 -35.0 -35.0 -36.0 -36.0 -36.0 -36.0 -35.0 -35.0 -35.0 -36.0 -35.0 -34.0 -33.0 -33.0 -33.0 -33.0 -33.0 -34.0 -35.0 -32.0 -32.0 -32.0 -32.0 -32.0 -33.0 -33.0 -34.0 -33.0 -33.0 -34.0 -35.0 -34.0 -34.0 -34.0 -35.0 -35.0 -36.0 -38.0 -40.0 -41.0 -42.0 -43.0 -44.0 -44.0 -44.0 -45.0 -46.0 -47.0 -48.0 -49.0 -51.0 -51.0 -51.0 -51.0 -51.0 -52.0 -52.0 -51.0 -50.0 -50.0 -49.0 -49.0 -50.0 -51.0 -50.0 -50.0 -49.0 -48.0 -47.0 -46.0 -45.0 -44.0 -43.0 -42.0 -41.0 -41.0 -40.0 -40.0 -39.0 -39.0 -38.0 -38.0 -38.0 -37.0 -37.0 -37.0 -36.0 -35.0 -34.0 -33.0 -32.0 -30.0 -29.0 -28.0 -27.0 -26.0 -26.0 -26.0 -26.0 -27.0 -29.0 -29.0 -29.0 -28.0 -26.0 -26.0 -27.0 -28.0 -28.0 -29.0 -29.0 -28.0 -25.0 -21.0 -22.0 -20.0 -19.0 -17.0 -15.0 -12.0 -7.0 -9.0 -8.0 -9.0 -8.0 -6.0 -6.0 -8.0 -11.0 -15.0 -11.0 -8.0 -8.0 -7.0 -4.0 -3.0 -11.0 0.0 4.0 -11.0 5.0 3.0 0.0 3.0 1.0 1.0 5.0 9.0 13.0 17.0 19.0 14.0 26.0 38.0 35.0 18.0 44.0 29.0 24.0 35.0 45.0 39.0 41.0 38.0 37.0 38.0 45.0 58.0 47.0 45.0 51.0 56.0 55.0 45.0 -6.0 -9.0 -13.0 -18.0 -16.0 -11.0 -7.0 14.0 19.0 40.0 59.0 53.0 78.0 50.0
